# .PCD v0.7 - Point Cloud Data file format
VERSION 0.7
FIELDS x y z rgb
SIZE 4 4 4 4
TYPE F F F F
COUNT 1 1 1 1
WIDTH 283
HEIGHT 1
VIEWPOINT 0 0 0 1 0 0 0
POINTS 283
DATA ascii
4.3525047 1.615151 -3.1065123 5.4395338e-39
4.2813439 1.652158 -3.1004078 8.9386265e-39
4.3420887 1.7086326 -3.1449831 7.0039672e-39
4.3904219 1.7279626 -3.1416848 6.0827297e-39
4.243937 1.5738882 -3.0686462 5.4398897e-39
4.2850537 1.5574577 -3.0933988 7.7408148e-39
4.242712 1.6051632 -3.0709608 7.9277213e-39
4.2891378 1.6231363 -3.0671561 7.5575095e-39
4.3579021 1.6497537 -3.0775223 5.9927075e-39
4.3083029 1.6627498 -3.0832133 7.9255563e-39
4.3770804 1.6898334 -3.0934672 6.6355532e-39
4.4277968 1.6440157 -2.9762115 5.0714673e-39
4.3888431 1.6862073 -2.983947 7.2798324e-39
4.3924165 1.6306412 -2.9183505 5.4398841e-39
4.3813734 1.6697074 -2.9274495 4.147346e-39
4.4159184 1.7375664 -2.9068096 8.8457148e-39
4.4361615 1.7785329 -2.9224637 4.9778297e-39
4.4348955 1.8108586 -2.9248559 9.5854308e-39
4.1571703 1.9444592 -2.9126959 6.7223188e-39
4.2225628 1.9434519 -2.9179342 6.6308518e-39
4.4378114 1.9104435 -2.9003747 8.6638444e-39
4.3798714 1.9508517 -2.9420502 5.6242753e-39
4.1472278 2.0336969 -2.9494197 1.5762535e-38
4.3756676 1.6728479 -2.877301 5.7135885e-39
4.4479427 1.6518347 -2.8812342 5.3462619e-39
4.4000745 1.7798994 -2.8662949 5.8079505e-39
4.4329405 1.8425342 -2.873188 7.1887214e-39
4.1918783 1.8972929 -2.8608186 5.6206684e-39
4.4424357 1.8794204 -2.8821526 8.385824e-39
4.3593092 1.9085283 -2.873071 5.1604189e-39
4.3654337 2.1055984 -2.8779323 1.0048577e-38
4.4123716 1.6383861 -2.8242695 5.4398897e-39
4.3513083 1.663277 -2.8272712 5.1604189e-39
4.4613738 1.657047 -2.8179162 6.0849032e-39
4.367907 1.7262001 -2.8253016 7.003607e-39
4.4060998 1.7984916 -2.8361194 6.5444394e-39
4.4114966 1.8330941 -2.8071291 6.7302726e-39
4.0970936 1.8841788 -2.8032835 5.3458906e-39
4.1786146 1.8907175 -2.8183606 6.0838087e-39
4.2443032 1.8889683 -2.8222978 8.7560373e-39
4.4579573 1.918262 -2.8053977 1.0784354e-38
4.3539324 2.0346398 -2.8294804 9.3092237e-39
4.1690354 2.1352563 -2.8364604 1.0602469e-38
4.3481569 1.646042 -2.7889173 3.1350059e-39
4.327136 1.6698078 -2.7793872 8.20216e-39
4.38517 1.6764715 -2.7775481 4.9771137e-39
4.3729467 1.7200366 -2.7749448 6.3600425e-39
4.4211888 1.7827153 -2.7840662 6.9143037e-39
4.4642901 1.7566319 -2.7934346 8.9400754e-39
4.4388695 1.844452 -2.7879264 4.7916434e-39
4.0295906 1.8829236 -2.7794771 5.8057813e-39
4.1661863 1.8845315 -2.7767401 1.0047868e-38
4.2122207 1.8740107 -2.7683165 1.0136807e-38
4.3886595 1.8558143 -2.7966492 8.1099616e-39
4.4376087 1.8766226 -2.7903073 8.1099616e-39
4.1518526 1.9245239 -2.78917 6.543359e-39
4.1176391 1.9854329 -2.791836 2.5803748e-39
4.1735859 1.9809732 -2.781837 6.7284677e-39
4.3423467 1.9642546 -2.7813656 8.1117595e-39
4.1701975 2.0261376 -2.7927427 6.1752939e-39
4.2660441 1.8344857 -2.7266614 4.7912875e-39
3.8393855 1.8795916 -2.7126644 4.6090444e-39
4.1337128 1.8998207 -2.7260664 7.0039672e-39
4.1725082 1.8869849 -2.746937 1.0784341e-38
4.1644831 1.9293911 -2.7296281 9.3095796e-39
3.8192143 1.9556282 -2.7078133 7.557141e-39
4.1649213 1.8365455 -2.6875184 5.0696666e-39
3.8169084 1.8823571 -2.6835597 6.9135694e-39
4.1731687 1.8711137 -2.6953969 7.2830736e-39
3.7939763 1.9417171 -2.6599708 8.6670969e-39
3.8115354 1.9154308 -2.6835546 8.2972213e-39
3.850024 1.91242 -2.6593831 2.1208414e-39
3.7928829 1.9696367 -2.6620376 5.9015993e-39
3.8298056 1.988313 -2.6547649 6.9142911e-39
3.806879 2.0056357 -2.6739688 5.3458962e-39
3.7923176 1.9258436 -2.6264379 3.5034185e-39
1.0326178 0.021204401 -0.75097042 1.5676864e-38
0.97938222 -0.051164314 -0.70529962 2.583644e-39
0.99815279 -0.036693424 -0.71399599 1.2081241e-38
1.0097201 0.026035763 -0.72057533 1.1893239e-38
1.0723395 0.07233499 -0.71155059 1.6873608e-38
1.00787 -0.034051243 -0.67114323 9.4061263e-39
1.013487 0.032332029 -0.67911363 1.1246065e-38
1.0200071 -0.032930158 -0.61362392 1.0420277e-38
1.0262833 0.023534095 -0.61715579 1.0323383e-38
1.027627 0.056952573 -0.62170374 1.3089975e-38
1.0262332 -0.031746447 -0.5744065 8.3908925e-39
1.0308163 0.026093179 -0.57730263 1.0508135e-38
1.0341202 0.059385464 -0.58119857 1.2168381e-38
1.0358574 -0.02822982 -0.52475625 9.2202945e-39
1.0365701 0.029113172 -0.52891088 1.0600335e-38
1.0515981 0.025929429 -0.50059652 1.0416296e-38
1.0373886 0.061995067 -0.5297153 1.1429734e-38
1.0826298 -0.15050404 -0.47931969 1.3187226e-38
1.0874436 -0.1127693 -0.46657589 8.4823553e-39
1.0861828 -0.072436213 -0.46842644 1.0047876e-38
1.0412993 -0.021815516 -0.48646456 8.8518679e-39
1.0745614 -0.035738386 -0.48017472 1.1802847e-38
1.1276952 -0.038587455 -0.48657593 1.5674696e-38
1.0429513 0.032281347 -0.47900194 1.0047523e-38
1.0550694 0.026466846 -0.47288027 9.6805411e-39
1.0464966 0.062881634 -0.49011168 1.1060952e-38
1.056495 0.0615668 -0.47356176 1.0602137e-38
1.0819726 -0.15153921 -0.44567734 9.5912336e-39
1.1027234 -0.15627284 -0.41948569 4.3342778e-39
1.0953369 -0.10901499 -0.40080386 1.0417747e-38
1.0944293 -0.066263705 -0.40364715 1.032375e-38
1.0380194 -0.017688144 -0.42330658 9.1273814e-39
1.0620716 -0.023385271 -0.4262411 1.0142971e-38
1.0416476 0.020791428 -0.43248543 1.0600341e-38
1.062464 0.034233309 -0.42509794 1.0785087e-38
1.0477977 0.067044735 -0.43549067 1.3089979e-38
1.0651475 0.070632383 -0.42093301 1.2170905e-38
1.143968 0.090998381 -0.40467545 1.5212285e-38
1.0950973 -0.14676178 -0.39473367 9.7752703e-39
1.1010023 -0.10617726 -0.35100651 9.9574938e-39
1.1004257 -0.063645259 -0.35323545 1.0416661e-38
1.0425196 -0.01344027 -0.37391442 9.4039683e-39
1.0666695 -0.019686801 -0.37396947 9.2210147e-39
1.0462227 0.035629559 -0.37785304 1.0876569e-38
1.070019 0.032905973 -0.37354463 1.0047887e-38
1.0490131 0.057056051 -0.39923763 1.0507066e-38
1.0745201 0.070721731 -0.37303635 1.1708126e-38
1.098007 -0.14527619 -0.34696174 8.2068628e-39
1.108128 -0.10331357 -0.30182594 9.2192085e-39
1.1085826 -0.059310183 -0.3052783 1.0601417e-38
1.0494788 -0.0095669888 -0.3249824 9.773471e-39
1.0735112 -0.017962936 -0.32627618 1.0604312e-38
1.0763476 0.034167435 -0.32388318 1.0418112e-38
1.0734301 0.074385956 -0.32761276 1.2537529e-38
1.1063938 0.08634416 -0.31870684 1.4380723e-38
1.109086 -0.12149444 -0.27496424 1.0050415e-38
1.1149945 -0.057872072 -0.25645059 1.0785811e-38
1.0749114 -0.013722803 -0.27573156 9.9596658e-39
1.0765555 0.025991293 -0.27557236 9.9567763e-39
1.1026192 0.044798497 -0.27678227 1.0970925e-38
1.084507 0.074362054 -0.27659085 1.3735711e-38
1.1120543 0.083984792 -0.27443826 1.3642431e-38
1.1136507 -0.13956849 -0.24943024 1.1064569e-38
1.120448 -0.078673378 -0.20492066 1.0785815e-38
1.0806229 -0.01242252 -0.22393611 1.0143701e-38
1.1282821 -0.038586132 -0.22581829 1.2903787e-38
1.0841935 0.022926744 -0.22434792 8.8515133e-39
1.1077194 0.04466036 -0.22467154 1.0693978e-38
1.0346311 0.088926613 -0.22437355 1.9820624e-38
1.085812 0.071436733 -0.22157536 1.2722642e-38
1.1073229 0.08561895 -0.23174462 1.4012657e-38
1.0961082 0.10077897 -0.20173477 8.2972536e-39
1.1184875 -0.1367369 -0.1998111 1.0972376e-38
1.1275922 -0.078619972 -0.15654351 1.0879094e-38
1.085952 -0.014148739 -0.17820263 1.0512842e-38
1.122086 -0.022481566 -0.16465633 1.0603596e-38
1.0909477 0.022174641 -0.17910564 1.0419203e-38
1.1149645 0.045813244 -0.17322648 1.1246799e-38
1.0677403 0.082381442 -0.18682201 1.5951294e-38
1.1025829 0.083615452 -0.17522997 1.3183623e-38
1.0973718 0.10084926 -0.16504563 6.1738618e-39
1.1239183 -0.13254067 -0.1252763 1.0419565e-38
1.1353228 -0.076242 -0.10600746 1.0509951e-38
1.0950074 -0.011654595 -0.13051309 9.8671128e-39
1.1462524 -0.022715919 -0.10549103 1.2626113e-38
1.0952847 0.013448112 -0.13514379 9.6827216e-39
1.1067333 0.029375527 -0.12011574 1.0787986e-38
1.0910553 0.068740696 -0.13435157 9.4028809e-39
1.1088951 0.080057286 -0.12763569 1.2629369e-38
1.1255629 0.10467065 -0.12566599 1.1798525e-38
1.1376116 -0.12821014 -0.052288659 1.2080169e-38
1.1387447 -0.089147493 -0.05463367 9.9567805e-39
1.0938301 -0.010115689 -0.086976856 9.2217434e-39
1.1222746 -0.014467137 -0.07055895 1.1524825e-38
1.0933337 0.010979978 -0.073789179 8.2990682e-39
1.108772 0.025682984 -0.075646311 1.0142255e-38
1.093505 0.077278063 -0.08722081 1.087801e-38
1.1126397 0.077854082 -0.077389598 1.2076198e-38
1.1245823 0.11092329 -0.083383992 1.4103768e-38
1.1451799 -0.12534139 -0.0032629222 1.0974183e-38
1.147522 -0.086158216 -0.0055476576 1.0326649e-38
1.0936041 -0.009980185 -0.034830321 8.2068642e-39
1.1163497 -0.0090831108 -0.021632291 1.2815927e-38
1.1573557 -0.04193715 -0.0079701841 1.1338992e-38
1.0911436 0.014356147 -0.027139321 9.7749158e-39
1.1126893 0.030902885 -0.022100955 1.0234453e-38
1.0982925 0.083590806 -0.022559136 1.0140089e-38
1.1165349 0.082718849 -0.025223533 1.2537534e-38
1.1208364 0.10477565 -0.020144442 6.1763939e-39
1.1539799 -0.12244213 0.045805834 9.5912462e-39
1.1594591 -0.074363209 0.044499911 1.1248237e-38
1.0852797 -0.015580948 0.010803081 7.2830974e-39
1.1184434 -0.0045464123 0.019565666 9.2221077e-39
1.1653321 -0.037563071 0.042173915 1.1246795e-38
1.0933857 0.01669262 0.0088405907 9.8703624e-39
1.1184322 0.025894128 0.021510785 1.0144064e-38
1.0979266 0.067023411 0.0040565133 1.005186e-38
1.124208 0.082868606 0.02216579 1.12486e-38
1.1311682 0.11068001 0.026871473 1.0141521e-38
1.1596009 0.11825699 0.041566823 8.7571373e-39
1.161181 -0.1195731 0.095047034 9.4064962e-39
1.1658912 -0.073536366 0.084693685 1.115604e-38
1.1156875 -0.012818974 0.083034635 7.4660454e-39
1.1724718 -0.024757251 0.085152559 9.587628e-39
1.1255387 0.01956025 0.072887667 9.8678373e-39
1.1791286 0.0005300343 0.086015783 7.557871e-39
1.1310316 0.078581229 0.072843224 1.1339718e-38
1.1350605 0.10539237 0.067022756 8.1114134e-39
1.1692371 0.11896247 0.057486895 6.1749338e-39
1.170719 -0.11663035 0.14450994 1.0237702e-38
1.1697201 -0.077459484 0.14259872 9.5912462e-39
1.1241938 -0.01409471 0.11574806 7.8333733e-39
1.1685462 -0.039737195 0.1201451 1.0970928e-38
1.1332016 0.015599273 0.12462378 9.314302e-39
1.1359092 0.08309333 0.12214212 1.1247878e-38
1.133396 0.10236904 0.1228447 7.3734952e-39
1.1623003 0.12757955 0.14125116 1.5674342e-38
1.1781636 -0.11373228 0.19395658 1.0606486e-38
1.1808023 -0.068407498 0.1954598 9.4979688e-39
1.1812105 -0.026138492 0.17020357 1.0142248e-38
1.1366102 0.016573355 0.17187557 8.3005074e-39
1.1500411 0.0096700545 0.17272919 1.033026e-38
1.1396893 0.082376331 0.17103666 1.1155687e-38
1.1526119 0.082394607 0.17983492 1.0879097e-38
1.1458311 0.10766789 0.16172865 1.0048612e-38
1.160658 0.11894789 0.18735433 9.4914625e-39
1.1840317 -0.11405193 0.24317256 9.4994121e-39
1.1870601 -0.064843394 0.23998249 1.0973097e-38
1.1217589 -0.0087952092 0.2214514 6.266049e-39
1.1921533 -0.025080487 0.23931491 1.0694341e-38
1.1397101 0.020950193 0.22343169 9.0380752e-39
1.1527243 0.015702413 0.23369148 6.1792862e-39
1.1446018 0.08132048 0.21830879 1.1064571e-38
1.1574734 0.074598394 0.22885047 1.0327368e-38
1.1483817 0.10718657 0.20798105 8.1128665e-39
1.1657152 0.12162117 0.23316224 8.0170443e-39
1.1886034 -0.11037715 0.29144549 8.7625687e-39
1.1942519 -0.06471099 0.29220045 1.1158569e-38
1.2022004 -0.018923566 0.28749722 1.0325199e-38
1.1444105 0.020318767 0.2628409 9.5937769e-39
1.1563158 0.02574723 0.2752777 6.457678e-39
1.2360219 0.012127854 0.27888596 1.2441344e-38
1.1457907 0.090119578 0.2606259 1.0699033e-38
1.1574593 0.075295359 0.26394618 9.8674701e-39
1.1764419 0.12005578 0.26428771 7.8337405e-39
1.1921086 -0.10574861 0.33394492 1.0424619e-38
1.1963563 -0.0769687 0.33170363 9.6848852e-39
1.2044779 -0.053018659 0.33747149 1.1526267e-38
1.1959875 -0.0021613538 0.32413089 6.0816606e-39
1.204334 -0.017543152 0.33102083 1.0234807e-38
1.1426765 0.0033408701 0.31463569 7.1033795e-39
1.156836 0.029263807 0.322422 6.0834556e-39
1.2387794 0.017245576 0.30435592 7.8333635e-39
1.1396002 0.051211234 0.33078867 6.8188543e-39
1.1673722 0.083713531 0.32668772 6.1767359e-39
1.1439577 0.023689389 0.36112785 6.5440764e-39
1.1610316 0.018476285 0.3584784 4.2435101e-39
1.1379266 0.070334613 0.3541081 7.3731182e-39
1.170862 0.086276054 0.36844054 1.0423868e-38
1.1640065 0.035347447 0.43201745 4.7916364e-39
1.1700977 0.077118985 0.41906175 6.1734876e-39
1.1688788 0.041733749 0.47825104 4.5204613e-39
1.0207323 0.098037288 0.49083316 8.3814898e-39
1.0911404 0.079698995 0.46923047 6.1774547e-39
1.140799 0.07638327 0.45935285 2.3988758e-39
1.169922 0.071033016 0.46142563 5.1618623e-39
1.0139381 0.12677163 0.47385323 8.7528017e-39
1.0775646 0.10642681 0.46262366 7.001805e-39
1.1087226 0.11188896 0.49611726 6.4464634e-39
1.0725448 0.088160783 0.51828271 7.1869221e-39
1.1228611 0.076538496 0.50432444 4.2409878e-39
0.94607747 0.1445965 0.52488005 8.2018027e-39
0.97487116 0.12962675 0.52127278 8.3854681e-39
1.0262604 0.11027089 0.51778543 8.9371971e-39
1.074472 0.10736915 0.5052644 6.9099765e-39
0.94901168 0.15036428 0.51969457 8.3818457e-39
0.96245408 0.15128487 0.51564658 8.1052575e-39
3.9925699 1.8960338 -2.8076355 6.9985554e-39
3.9316313 1.9557869 -2.8086429 1.4287052e-38
4.0047741 1.9007702 -2.7501011 8.0184722e-39
3.8466842 1.9562311 -2.7562335 5.7153892e-39
3.9097402 1.8703544 -2.7386272 5.3451619e-39
3.9339237 1.9253795 -2.7104428 4.053707e-39
3.9688942 1.9131067 -2.730005 8.8475098e-39
4.0264063 1.9707618 -2.7369859 3.22611e-39
3.8623705 1.8614544 -2.6932778 6.0841647e-39
3.9382257 1.9710178 -2.6853702 5.071103e-39
