# .PCD v0.7 - Point Cloud Data file format
VERSION 0.7
FIELDS x y z rgb
SIZE 4 4 4 4
TYPE F F F F
COUNT 1 1 1 1
WIDTH 237
HEIGHT 1
VIEWPOINT 0 0 0 1 0 0 0
POINTS 237
DATA ascii
4.0809221 1.2099729 -2.2803943 9.2159224e-39
3.9562659 1.2235427 -2.2157099 9.1244499e-39
4.0176506 1.216881 -2.2475631 9.1233709e-39
4.0776758 1.2093337 -2.2352448 9.215928e-39
3.9580343 1.1982642 -2.1879144 9.2155665e-39
3.8967688 1.2299964 -2.1848366 9.0311752e-39
4.0523109 1.2019681 -2.1648037 5.1622182e-39
3.8685119 1.1954327 -2.1417954 9.1230051e-39
3.9168401 1.1855671 -2.1248462 7.0050392e-39
3.9521542 1.1970475 -2.1009848 6.4525941e-39
3.8118324 1.2398225 -2.100256 6.8210151e-39
4.0824909 1.2384665 -2.1375086 9.3103083e-39
3.8260431 1.257015 -2.1486161 7.9244745e-39
3.8586857 1.1925457 -2.0956898 6.0841675e-39
1.0563271 -0.30574307 -0.55121338 8.2025104e-39
1.068768 -0.27286631 -0.55105913 8.1106777e-39
1.0753545 -0.2399227 -0.55350828 7.0972488e-39
1.0438082 -0.31383607 -0.51791209 9.589793e-39
1.0548048 -0.30802351 -0.53739607 8.9429705e-39
1.0631294 -0.28067678 -0.51277095 1.0601063e-38
1.078266 -0.23202661 -0.52384245 1.0783994e-38
1.0491856 -0.30703986 -0.47034678 8.299057e-39
1.0624925 -0.26367462 -0.47753695 1.032411e-38
1.0759627 -0.2194602 -0.46284977 1.179924e-38
1.1619468 -0.20580214 -0.49036023 1.3556009e-38
1.0450807 -0.30104116 -0.42229122 9.0362633e-39
1.0544592 -0.28742495 -0.41731533 8.7603911e-39
1.0702187 -0.22906037 -0.42212611 1.0231183e-38
1.0752668 -0.18700461 -0.40593114 1.5307007e-38
1.0466931 -0.30132127 -0.37674809 4.2431696e-39
1.0517666 -0.30489126 -0.39184999 1.3555647e-38
1.0454479 -0.28907114 -0.36389503 8.3916128e-39
1.0567219 -0.27376971 -0.36146533 7.4692908e-39
1.0642191 -0.22584921 -0.36005363 1.0232272e-38
1.0725858 -0.19188952 -0.36621612 1.0787613e-38
1.1460572 -0.16896105 -0.37606186 9.5915979e-39
1.1748912 -0.18168527 -0.38631976 1.3464533e-38
1.2072023 -0.1736168 -0.38634837 1.4109181e-38
1.0429301 -0.27656499 -0.31120014 7.8373572e-39
1.0525998 -0.28463936 -0.328455 1.0235884e-38
1.0552477 -0.23576981 -0.30977157 9.3110398e-39
1.0457938 -0.15803199 -0.30994058 5.4428002e-39
1.0650353 -0.17750382 -0.32075077 1.2815917e-38
1.0393776 -0.2732724 -0.26363516 7.1005166e-39
1.0607901 -0.27229255 -0.28306675 1.060575e-38
1.0450537 -0.23389804 -0.26317525 8.0203051e-39
1.0576129 -0.22369014 -0.26587164 7.466767e-39
1.0466639 -0.15825556 -0.25895315 7.4696677e-39
1.0587177 -0.1887891 -0.26149705 9.9560462e-39
1.0582097 -0.14630067 -0.29634565 6.3640362e-39
1.0356191 -0.26493618 -0.21626012 1.0327362e-38
1.0562189 -0.2691288 -0.22655758 5.994525e-39
1.0415833 -0.23238683 -0.21279316 8.942623e-39
1.0590613 -0.23233217 -0.22665857 9.9567707e-39
1.0490323 -0.17864689 -0.22618122 1.2443886e-38
1.0597844 -0.17298661 -0.22218449 1.1155314e-38
1.0691204 -0.14458665 -0.21560359 5.9941663e-39
1.0361046 -0.26038966 -0.16909635 9.1284576e-39
1.0517232 -0.26060724 -0.19802792 1.0973092e-38
1.0402712 -0.22198652 -0.17167799 9.772385e-39
1.0559704 -0.22378269 -0.17526147 1.0510668e-38
1.0455415 -0.19671831 -0.1628584 7.5589641e-39
1.0606147 -0.16803287 -0.16776115 1.1246431e-38
1.0662349 -0.14628291 -0.18931465 3.8729437e-39
1.0373328 -0.25244871 -0.11670364 7.0079567e-39
1.0290143 -0.23062614 -0.1096133 9.5901588e-39
1.0431759 -0.18450531 -0.11251663 1.0141163e-38
1.054408 -0.16241176 -0.12317226 1.0969488e-38
1.0603712 -0.14459392 -0.11360903 1.2168743e-38
1.0338619 -0.25082535 -0.087044075 2.582565e-39
1.025928 -0.22750703 -0.062471729 8.5756481e-39
1.0407677 -0.178086 -0.063127205 9.8645793e-39
1.0576184 -0.16049391 -0.06356056 1.060142e-38
1.0561458 -0.141737 -0.068055809 1.373535e-38
1.2874812 -0.1360555 -0.055850126 1.9451477e-38
1.019707 -0.22360092 -0.014512815 1.0511759e-38
1.0365877 -0.18050957 -0.013892945 1.0140807e-38
1.0528935 -0.15528327 -0.014447448 1.1246792e-38
1.0468342 -0.13572289 -0.01941455 1.0140806e-38
1.061934 -0.12943295 -0.014351558 1.2537167e-38
1.1718822 -0.12408867 -0.0040501449 1.9176334e-38
1.2668341 -0.13192998 -0.03097558 1.862316e-38
1.0204618 -0.21485795 0.036389813 9.4986876e-39
1.0322356 -0.17616528 0.036456767 1.0418122e-38
1.0469722 -0.13447469 0.035674669 1.1615575e-38
1.0559835 -0.11447373 0.037436392 1.5763291e-38
1.1587533 -0.12582801 0.011537299 1.7240225e-38
1.3142569 -0.12620103 0.013873366 1.7976346e-38
1.0185778 -0.21370414 0.08645618 7.9310004e-39
1.0255702 -0.18064277 0.087247714 1.0419201e-38
1.0399435 -0.12751347 0.084099948 1.2075835e-38
1.0559709 -0.10935126 0.073223092 1.6870723e-38
1.1146772 -0.11078866 0.093297966 1.7145505e-38
1.1844491 -0.10999426 0.099738419 1.8806472e-38
1.2383163 -0.11184518 0.081153475 1.825474e-38
1.2561562 -0.11627085 0.065565079 1.8162185e-38
1.0160167 -0.20945245 0.12914734 1.1527353e-38
1.0199155 -0.17786551 0.13668165 1.0142974e-38
1.0405561 -0.11402635 0.12937425 1.3182537e-38
1.05244 -0.10211669 0.10706139 1.8531324e-38
1.0434318 -0.096108168 0.12673566 1.410594e-38
1.0742214 -0.092677228 0.13797174 1.3643874e-38
1.0167377 -0.20193136 0.17332274 4.2413745e-39
1.0179447 -0.18018775 0.18617976 9.592328e-39
1.0273967 -0.1276813 0.18555053 1.060323e-38
1.041012 -0.089468926 0.17876282 1.2354219e-38
1.0655237 -0.087672226 0.17582211 7.9281151e-39
1.0176543 -0.20070165 0.20380154 3.0406663e-39
1.0132315 -0.17713878 0.23537824 9.9603916e-39
1.0233426 -0.12783931 0.23161778 1.0603232e-38
1.0301207 -0.09399841 0.23819378 1.1709214e-38
1.0621488 -0.081744052 0.20596552 5.901249e-39
0.99908507 -0.17595252 0.27939826 9.4068591e-39
1.0134637 -0.17095943 0.28362587 9.4072165e-39
1.0177546 -0.13099013 0.28446957 1.0787987e-38
1.0284359 -0.081747785 0.28518885 1.2077273e-38
1.0539793 -0.074198365 0.25958773 3.8696913e-39
0.99579883 -0.17079347 0.3257829 7.9317277e-39
1.0044681 -0.16393453 0.33646676 8.5778173e-39
1.0150051 -0.12948728 0.33497694 1.051284e-38
1.0250471 -0.078723326 0.33217722 1.0970568e-38
0.99441898 -0.16596277 0.3770133 1.2266004e-38
1.0049232 -0.16184489 0.37292716 9.7763619e-39
0.991382 -0.13733807 0.39275146 8.7618499e-39
1.0088341 -0.13319203 0.37549824 1.0420288e-38
1.0183225 -0.073973 0.37905622 1.1708133e-38
1.0065308 -0.044741619 0.38580593 2.9495273e-39
1.0059184 -0.15750036 0.42936856 1.0881986e-38
0.99449265 -0.133324 0.42183647 7.8420628e-39
1.0107119 -0.12211277 0.42121661 9.0395186e-39
1.0135142 -0.073075123 0.42385831 1.0050777e-38
1.0370141 -0.046964146 0.41917101 1.5120453e-38
1.0012238 -0.15274332 0.48246282 1.079734e-38
0.99452078 -0.14630786 0.45811716 1.2451839e-38
1.0106015 -0.11996305 0.4659633 9.129175e-39
1.0224202 -0.080774687 0.45195258 9.7763605e-39
1.0170629 -0.12615097 0.50806439 8.5734565e-39
0.74281901 0.049497172 0.59599787 8.0184905e-39
0.67277026 0.080881432 0.59054846 9.7676823e-39
0.72291434 0.071595937 0.5839088 7.0032483e-39
0.57549602 0.13605325 0.57729858 9.5840085e-39
0.60419452 0.12030196 0.57741094 8.2943529e-39
0.48421329 0.18145603 0.56697011 7.5589542e-39
0.52079904 0.16146995 0.56885272 9.0319165e-39
0.55789989 0.15235861 0.56544399 8.5673272e-39
0.92179489 -0.053424388 0.6338442 5.6260858e-39
0.97891444 -0.075053796 0.63542044 6.5520092e-39
1.0083388 -0.067537829 0.62395078 8.9415258e-39
0.84439844 -0.0067313667 0.61551416 8.6638613e-39
0.88725406 -0.017364604 0.61252165 7.741898e-39
0.9326182 -0.044179611 0.62091428 4.5190166e-39
0.79412222 0.024744412 0.60628951 8.2947172e-39
0.83728719 0.009299811 0.60368454 8.1088798e-39
4.4575114 1.1819025 -2.2552145 4.885281e-39
4.2853274 1.246176 -2.2513149 7.2823603e-39
4.3776007 1.245494 -2.2809823 4.6090444e-39
4.4409752 1.2937609 -2.2817504 9.0340717e-39
4.3843322 1.3053731 -2.254971 9.959286e-39
4.3546448 1.1964183 -2.2071459 7.0057735e-39
4.325057 1.2160096 -2.2241883 5.6228404e-39
4.406074 1.2259392 -2.2012217 8.0213645e-39
4.4659829 1.2726252 -2.2303262 8.4805476e-39
4.4277315 1.304692 -2.2290142 9.9574741e-39
4.3372068 1.3762497 -2.203887 1.207689e-38
4.105763 1.4874291 -2.2132421 9.4032046e-39
4.2460408 1.4569752 -2.2227709 1.0600303e-38
3.9753482 1.5163571 -2.2048419 1.0418078e-38
3.9905665 1.5744827 -2.2423136 1.0603909e-38
4.8275471 0.9071694 -2.1506364 5.6203153e-39
4.6922531 1.0639502 -2.1976914 6.8195787e-39
4.3703184 1.1773391 -2.1730666 6.4536829e-39
4.406436 1.1685203 -2.1688385 8.2057586e-39
4.4877834 1.1914331 -2.1751876 1.023406e-38
4.1828737 1.2427478 -2.1863627 7.652582e-39
4.3733034 1.2454394 -2.1558816 4.0565993e-39
4.532948 1.2340536 -2.1650031 5.8054422e-39
4.2217751 1.2827293 -2.1765964 8.9480236e-39
4.4731994 1.2753875 -2.1710408 9.7719997e-39
3.8440604 1.3262409 -2.1597326 8.0206316e-39
4.2619247 1.3095539 -2.1665769 7.2830904e-39
4.3829803 1.3198562 -2.1931314 6.6373497e-39
3.8316178 1.3594354 -2.1540663 8.7560345e-39
3.9385312 1.3988836 -2.1829412 8.5712761e-39
3.9713585 1.3850523 -2.1713004 6.8202906e-39
4.003376 1.3966432 -2.1879449 8.111021e-39
3.8797884 1.4026111 -2.1528203 3.22611e-39
3.9292927 1.4340389 -2.1513312 9.4035675e-39
3.9883239 1.4172814 -2.1808395 5.4359212e-39
4.008069 1.4246043 -2.1627681 1.1523707e-38
4.0895724 1.4279844 -2.1747899 1.2167273e-38
4.246388 1.4017128 -2.1916041 1.1153489e-38
4.0091944 1.5035312 -2.1936328 1.0510271e-38
4.6502585 0.93262982 -2.1104407 5.6199593e-39
4.6284957 0.98840445 -2.1353018 6.5437107e-39
4.5475373 1.0001596 -2.1009696 8.203232e-39
4.5696106 1.0353305 -2.1114779 1.2994887e-38
4.7010732 1.0213633 -2.101747 6.4461005e-39
4.6335354 1.0809996 -2.1402292 1.3641335e-38
4.3921428 1.1937568 -2.1322401 1.0047142e-38
3.8400216 1.2240267 -2.1414697 8.8475e-39
4.3567619 1.2122881 -2.1168594 9.3092237e-39
3.8289881 1.283214 -2.1372352 6.7298998e-39
4.0732083 1.2891179 -2.1057029 4.425735e-39
4.121285 1.2779622 -2.1283975 7.6547498e-39
3.8999236 1.3336221 -2.14762 9.4935911e-39
3.9420414 1.3487228 -2.1277859 7.464581e-39
3.9593399 1.3290666 -2.1080101 5.2529691e-39
4.0087271 1.320195 -2.1038837 5.0693065e-39
4.1067734 1.3270466 -2.1227899 8.9415201e-39
3.7837558 1.3789173 -2.129585 8.3890652e-39
4.0239482 1.3779274 -2.1411335 7.1908752e-39
4.0578232 1.3635424 -2.1288824 1.1891408e-38
3.7937875 1.4323332 -2.1361434 5.3469696e-39
3.837508 1.4118329 -2.131305 6.5447897e-39
3.8534703 1.4430938 -2.1403041 1.0603548e-38
3.8094511 1.4757682 -2.1453922 1.2444584e-38
4.6740479 0.93031013 -2.0958385 6.7273817e-39
4.7435546 0.93806845 -2.0837212 8.0137877e-39
4.7993402 0.90264142 -2.0885758 7.5575053e-39
4.8146992 0.9377436 -2.0791605 6.3524825e-39
4.8643937 0.94864613 -2.0655761 1.0414488e-38
4.5904112 0.98043472 -2.0866733 9.2145001e-39
4.6771107 0.96974939 -2.0902379 9.582198e-39
4.7461343 0.98544711 -2.0862422 5.7982143e-39
4.7947941 0.99671167 -2.07305 4.7909189e-39
4.8164425 0.96978396 -2.0808654 5.8007437e-39
4.5520353 1.016722 -2.0716035 1.1612667e-38
4.7599154 1.0353471 -2.0934038 5.3430067e-39
4.5954056 1.0721923 -2.0915561 1.0232265e-38
4.6821966 1.0632018 -2.095211 5.0667856e-39
3.8386345 1.2175931 -2.0862145 7.4674649e-39
3.8863912 1.2144884 -2.0690422 7.5607437e-39
3.9878592 1.2347021 -2.0914614 1.0507048e-38
3.8336418 1.2849947 -2.0990057 9.1222989e-39
3.8803697 1.2632949 -2.0809896 9.0300976e-39
3.9118776 1.2995989 -2.0975788 8.2014174e-39
3.9667194 1.266892 -2.0820599 7.0068497e-39
