# .PCD v0.7 - Point Cloud Data file format
VERSION 0.7
FIELDS x y z rgb
SIZE 4 4 4 4
TYPE F F F F
COUNT 1 1 1 1
WIDTH 291
HEIGHT 1
VIEWPOINT 0 0 0 1 0 0 0
POINTS 291
DATA ascii
3.8750594 3.0370793 -1.8813479 9.1258918e-39
3.6416235 2.8891201 -1.8054663 8.5719991e-39
3.824759 2.9967737 -1.8285202 9.0340689e-39
3.9184518 3.033709 -1.8376436 8.0202855e-39
4.6183124 2.5429661 -1.7675848 7.0061308e-39
4.657093 2.5995719 -1.7528577 7.1916038e-39
3.5753694 2.8688984 -1.7770343 8.4805224e-39
3.6430979 2.888541 -1.7634327 8.6649206e-39
3.9002478 2.9487631 -1.7643112 6.2685714e-39
3.8922 2.9780655 -1.7934092 9.0358696e-39
4.5754352 2.4360514 -1.7190975 6.1774533e-39
4.5582571 2.4771395 -1.7267125 5.5313721e-39
4.5844126 2.5260673 -1.7075768 7.5582228e-39
4.611877 2.5756831 -1.7042756 6.3585978e-39
4.6514921 2.6320524 -1.7212365 3.6885329e-39
3.469347 2.8156374 -1.7299454 8.2950563e-39
3.5401583 2.8391905 -1.7190381 8.2961367e-39
3.6357651 2.8487732 -1.7151973 5.255853e-39
3.9082966 2.9194617 -1.7352126 5.3476913e-39
4.2146254 2.9235487 -1.7196581 6.3607642e-39
3.8529546 2.9798086 -1.7189279 8.942239e-39
4.2969375 2.9789917 -1.7184372 1.1059855e-38
4.2465787 3.0900569 -1.7081215 5.6231991e-39
4.561543 2.4467545 -1.6787362 5.8108344e-39
4.5565081 2.4782131 -1.6636217 5.1640245e-39
4.6912189 2.5174491 -1.6619461 5.3487773e-39
4.5846648 2.5957456 -1.6651309 4.0583944e-39
4.624249 2.6522748 -1.681789 4.7008771e-39
4.1673293 2.7487764 -1.6615157 1.1523003e-38
3.443141 2.7923298 -1.6636537 4.8885054e-39
3.4558222 2.8036399 -1.6964966 8.4801721e-39
3.5057743 2.8101711 -1.6622081 5.3480486e-39
3.5847626 2.8409803 -1.6949317 4.7041141e-39
3.6250935 2.8227348 -1.6670078 7.2823603e-39
4.1708574 2.8225768 -1.6986285 1.0416653e-38
3.6897666 2.8557887 -1.6793555 6.5451526e-39
3.7282214 2.8524694 -1.6934904 5.0711114e-39
3.8210974 2.8705883 -1.677832 7.1919598e-39
3.8758535 2.8930786 -1.6618791 6.3629292e-39
4.1640482 2.8527164 -1.6823288 6.6373525e-39
3.7474964 2.9320216 -1.6770383 1.097379e-38
3.7878921 2.9287245 -1.6623167 8.0206386e-39
3.8187151 2.9193501 -1.6875412 8.2053914e-39
4.2419581 3.0124497 -1.6696755 4.7916434e-39
3.8753591 3.0631049 -1.6725105 1.0787947e-38
4.5895886 2.4800777 -1.6429805 3.6881811e-39
4.5433111 2.5225816 -1.6311095 4.2399046e-39
4.5414047 2.5725887 -1.6182786 4.3338995e-39
4.6582189 2.5698395 -1.6230047 2.944491e-39
4.5575047 2.6155066 -1.6262798 4.237748e-39
4.1636553 2.6755362 -1.6246774 1.5024267e-38
4.2109442 2.6695149 -1.6082697 1.1798859e-38
4.574502 2.6592474 -1.6346209 8.5734439e-39
4.0476542 2.7045121 -1.618862 6.3600453e-39
4.3611736 2.7267241 -1.627161 5.0711016e-39
3.4540913 2.7988899 -1.6144011 7.6540211e-39
3.5243073 2.7868106 -1.6357309 6.8228241e-39
4.0742645 2.7732463 -1.6163738 9.7709221e-39
4.5138211 2.7597296 -1.6222283 5.3476913e-39
3.5430977 2.806 -1.6211799 8.7628952e-39
3.5722718 2.8277645 -1.6057785 1.1439101e-38
3.7013772 2.8950794 -1.6289353 1.1527319e-38
3.7774742 2.896961 -1.6175234 5.4395352e-39
3.8112559 2.8779519 -1.6233274 5.7164864e-39
4.1450462 2.8909938 -1.6309133 1.2904852e-38
3.8911901 2.9196315 -1.6240661 8.2975997e-39
3.9124706 2.9178231 -1.6162447 7.2827177e-39
4.1913123 2.9396636 -1.6170069 6.5447897e-39
3.6497951 2.9524817 -1.6140774 1.0787233e-38
3.7820826 2.9564776 -1.6327095 5.6232019e-39
3.8904123 3.0049098 -1.644056 1.0786154e-38
4.4679499 2.5996153 -1.550559 6.7291768e-39
4.5292649 2.5673363 -1.567198 4.1495068e-39
4.5658627 2.5533824 -1.5932686 5.3451647e-39
4.6309447 2.5903504 -1.584013 5.1607735e-39
4.6790619 2.5832767 -1.5659474 2.1190463e-39
3.9811025 2.6425247 -1.5628761 6.5451568e-39
4.0092311 2.6105685 -1.5702766 7.3731182e-39
4.1082425 2.6390963 -1.5735337 6.0834584e-39
4.2314992 2.6813226 -1.5838208 6.5444338e-39
4.2798786 2.6751416 -1.5667286 7.6529351e-39
4.5267391 2.6666961 -1.5887076 7.0986795e-39
4.0056534 2.709388 -1.5747633 1.0325179e-38
4.343049 2.7131898 -1.5557729 9.4039458e-39
4.622551 2.7240376 -1.5742404 7.8340824e-39
3.4949605 2.7982194 -1.5754352 7.7473154e-39
4.0180178 2.7506018 -1.5507195 9.6798097e-39
3.4392118 2.8172433 -1.5965531 7.3777958e-39
4.0650816 2.817122 -1.5695677 9.1259142e-39
4.1109867 2.8125832 -1.552936 6.1742219e-39
4.6158791 2.5156934 -1.5110098 3.3193972e-39
4.4821796 2.5751216 -1.5300348 6.9139324e-39
4.5275226 2.5684063 -1.5043321 5.7157577e-39
4.6074424 2.5784054 -1.5443331 4.7023218e-39
3.9645677 2.6305444 -1.5268338 1.1059848e-38
4.0108032 2.6099515 -1.5254681 7.0939978e-39
4.5075493 2.6244307 -1.5020303 8.4808965e-39
3.989697 2.6970086 -1.5235287 8.0199226e-39
4.1283951 2.6502795 -1.5341364 7.6453681e-39
4.1679997 2.6738307 -1.5008372 5.0671555e-39
4.2433295 2.6870694 -1.5401397 7.0032525e-39
4.5447545 2.6803279 -1.5008475 9.2173812e-39
4.3290377 2.7751892 -1.5222428 9.9556749e-39
4.3569674 2.7567565 -1.5295957 8.5716642e-39
4.6057391 2.7503586 -1.5230772 9.4021256e-39
4.5420666 2.5438147 -1.4756655 6.1763729e-39
4.5760336 2.5174778 -1.4784995 5.2551383e-39
4.6640496 2.5081763 -1.4924781 4.9778325e-39
4.4910092 2.5819185 -1.4789075 7.929529e-39
4.5370321 2.5752733 -1.460551 5.2555054e-39
3.9656067 2.6301367 -1.4972222 5.9847678e-39
4.0176754 2.6295323 -1.4833587 5.1564575e-39
4.5404644 2.6279991 -1.4648533 8.9429593e-39
4.6669044 2.6491046 -1.4699484 4.88636e-39
4.0158777 2.6790025 -1.4854053 5.7143256e-39
4.0857434 2.6555614 -1.4750339 4.7019715e-39
4.61801 2.6561043 -1.4567751 5.3458934e-39
4.1155591 2.7092533 -1.4867883 1.0601041e-38
4.5870218 2.7060065 -1.4830263 9.681246e-39
4.6764026 2.4989777 -1.4471476 5.6228418e-39
1.0975029 0.13850629 -0.47540972 8.8525853e-39
1.1047156 0.17288746 -0.48160779 9.5887056e-39
1.0992007 0.22064504 -0.45711637 1.0416297e-38
1.1000459 0.2158885 -0.48855269 9.6808873e-39
1.0941788 0.13574229 -0.41052493 9.0380668e-39
1.1105834 0.14602567 -0.40367094 4.5190348e-39
1.0958576 0.18133642 -0.42395675 1.0508141e-38
1.1121678 0.19365549 -0.40459299 4.7927294e-39
1.0984173 0.22483546 -0.41545695 1.1983991e-38
1.1101657 0.22409086 -0.4041042 4.3317485e-39
1.0857975 0.13384436 -0.3579863 9.5905203e-39
1.1110545 0.14246304 -0.36924127 7.2856268e-39
1.0831608 0.17776014 -0.35886011 1.0140437e-38
1.10743 0.19047636 -0.36975229 7.9273822e-39
1.0833728 0.21595342 -0.3766036 1.0784003e-38
1.1072109 0.23239321 -0.3652364 1.1985433e-38
1.149111 0.25973725 -0.39816657 1.5399557e-38
1.1535583 0.2624346 -0.36779928 1.5952012e-38
1.0933012 0.13111231 -0.31875288 1.0144772e-38
1.109892 0.14063424 -0.3308754 3.7821914e-39
1.0932389 0.1743422 -0.32090732 9.6805383e-39
1.1046759 0.19540136 -0.31618178 4.8845691e-39
1.0894612 0.21785091 -0.31697124 1.1154228e-38
1.1214321 0.24541688 -0.31193361 6.9154037e-39
1.1417551 0.25595373 -0.31198671 1.3556726e-38
1.0867345 0.12953115 -0.26636058 7.7469665e-39
1.1046909 0.14542767 -0.26802668 4.5183187e-39
1.0848874 0.17938244 -0.26562142 1.0047164e-38
1.079249 0.21799378 -0.25959963 1.060106e-38
1.1060507 0.23661888 -0.27718085 6.5444604e-39
1.1408906 0.26759216 -0.28774911 1.3832233e-38
1.1700499 0.2681562 -0.28904277 1.5031496e-38
1.0866276 0.13250864 -0.21145445 9.6830775e-39
1.1037749 0.12904322 -0.22867022 2.8595093e-39
1.0792334 0.17165858 -0.21108651 9.0351759e-39
1.0724783 0.21006356 -0.21937454 1.0785808e-38
1.0720013 0.12655553 -0.16631863 9.8671044e-39
1.068128 0.16452387 -0.16507916 9.4957967e-39
1.0636595 0.22419587 -0.16624585 1.2355299e-38
1.0694015 0.1238201 -0.11144504 8.6682011e-39
1.0470988 0.16737063 -0.10753392 1.1615936e-38
1.0713997 0.15864447 -0.11349538 9.9578567e-39
1.0449438 0.20885319 -0.12492273 1.2351698e-38
1.0642318 0.22123885 -0.11139272 9.6790992e-39
1.0441285 0.12550183 -0.058013946 9.3135747e-39
1.0674692 0.13237433 -0.058387011 9.0366235e-39
1.0450857 0.16611511 -0.058106966 1.2261668e-38
1.0623679 0.18567806 -0.056874689 1.087873e-38
1.0410284 0.20793632 -0.056354057 1.3367296e-38
1.0625861 0.22388504 -0.070445076 1.1895044e-38
1.0327653 0.11839809 -0.0089609623 1.1618468e-38
1.0645634 0.13044624 -0.013028227 1.0881259e-38
1.0386767 0.15974645 -0.0077038333 1.0787263e-38
1.0580685 0.18413714 -0.0067024548 1.1063122e-38
1.0411389 0.21867326 -0.0078278044 1.2997426e-38
1.0555313 0.22190399 -0.026819319 1.0323031e-38
1.1075428 0.24418435 -0.046374392 1.7609008e-38
1.1857779 0.27305177 -0.02848855 1.6871807e-38
1.0377222 0.11803906 0.044671565 1.1895414e-38
1.0551071 0.13514563 0.038862418 9.129545e-39
1.04022 0.17521578 0.043483671 1.180033e-38
1.0557485 0.17078331 0.042571519 9.3117712e-39
1.0393395 0.21584786 0.04564314 1.3920105e-38
1.0563246 0.23553681 0.01824146 1.2260948e-38
1.1404326 0.25530007 0.037773155 1.0323764e-38
1.0414925 0.12673946 0.089880161 1.0512482e-38
1.040086 0.17386255 0.092963204 1.2261671e-38
1.0527565 0.19414453 0.079769634 6.4515445e-39
1.039288 0.22860356 0.082945667 1.4473998e-38
1.0650322 0.23182659 0.084826618 1.2169471e-38
1.1117885 0.24977088 0.09776637 1.7240225e-38
1.0395868 0.12602429 0.13713688 1.0697235e-38
1.0510405 0.11165798 0.13490793 6.2671532e-39
1.0356901 0.17519277 0.1411601 1.207764e-38
1.0343221 0.22394234 0.14388615 1.2354221e-38
1.060155 0.23617603 0.13325077 8.9397349e-39
1.0349936 0.12753233 0.18104067 1.1343326e-38
1.0284886 0.17535633 0.18875019 1.1893245e-38
1.0215695 0.21991214 0.18781202 1.3090347e-38
1.0568457 0.22846819 0.18066695 1.198508e-38
1.1112542 0.24572265 0.16934568 1.6871446e-38
1.0233359 0.12846607 0.23942116 1.1158576e-38
1.019866 0.18290088 0.23517489 1.1985082e-38
1.0226794 0.22322609 0.23725939 1.0692895e-38
1.0525002 0.22945087 0.22380444 8.2961774e-39
1.1296027 0.25216076 0.20925903 1.1799971e-38
1.1688217 0.27315974 0.22514623 1.3090707e-38
1.0220132 0.12259425 0.28434956 9.4994219e-39
1.0155668 0.17244054 0.28620973 1.235531e-38
1.0191572 0.2167003 0.28050172 1.1248594e-38
1.0666546 0.2439256 0.27133852 1.0049331e-38
1.1276251 0.25865683 0.2822974 1.3460569e-38
1.0165502 0.12139552 0.33663061 1.2265288e-38
1.0126257 0.17641115 0.33967173 1.198581e-38
1.0114654 0.21529421 0.33966416 1.1984719e-38
1.0086925 0.1299772 0.37591159 1.0513572e-38
1.0057478 0.17423496 0.38894105 1.2355314e-38
1.0057275 0.21099654 0.38566431 1.2446058e-38
1.0077848 0.11864933 0.43478322 1.1989421e-38
0.99513316 0.19390771 0.44335029 1.2815208e-38
1.0048515 0.17119984 0.42753333 1.1434076e-38
0.99854231 0.21015269 0.42773795 1.4011948e-38
1.0037823 0.21627416 0.40696308 1.4196688e-38
1.061615 0.24182554 0.41800117 7.5575109e-39
0.99735516 0.12886542 0.47841415 1.2542599e-38
1.0040399 0.11640228 0.47723284 1.3926973e-38
0.99359632 0.16930681 0.47882423 1.2078365e-38
0.98832375 0.2111983 0.47685522 1.0323747e-38
1.016537 0.23406273 0.49149457 8.1103105e-39
0.99317616 0.12399416 0.53651714 1.0975628e-38
0.98866946 0.18138093 0.53551942 1.2173441e-38
0.98991001 0.20097916 0.50150025 1.2907401e-38
0.98628217 0.1266834 0.56792837 8.2064859e-39
0.98379356 0.18198025 0.61920094 7.7465923e-39
0.97831327 0.16567512 0.6904335 6.4558437e-39
3.4741294 3.0066907 -1.7052093 8.6638388e-39
3.3492806 2.7486348 -1.6629498 8.018475e-39
3.3712649 2.8882101 -1.6690288 9.4024787e-39
3.2338064 2.7284689 -1.6277035 5.2558487e-39
3.2736385 2.7172155 -1.6430143 8.4787273e-39
3.3118346 2.747519 -1.6348025 5.3469654e-39
3.2929633 2.7922282 -1.6435575 6.3621991e-39
3.3385324 2.7831793 -1.6153057 8.4801707e-39
3.3714118 2.7793069 -1.6146839 8.3894128e-39
3.3341713 2.8328319 -1.6237175 8.0206302e-39
3.3521819 2.8403292 -1.6314174 9.1240967e-39
4.0893278 2.8102305 -1.605899 1.1245322e-38
3.4074333 2.9465768 -1.6070225 1.0418078e-38
4.1732273 2.9002945 -1.6117679 1.1153843e-38
3.4342914 2.9707627 -1.6460522 5.3469654e-39
3.4902368 2.9526856 -1.6114515 1.0786505e-38
4.0496626 2.5672486 -1.5749747 1.0692148e-38
4.0439639 2.6458173 -1.5692613 9.6797998e-39
4.0623193 2.6059389 -1.5820658 1.0046423e-38
3.9987068 2.6569188 -1.563969 4.7945175e-39
3.9747264 2.7019739 -1.5589935 8.0191911e-39
3.379025 2.7993839 -1.5859493 8.9422236e-39
4.053299 2.7868052 -1.563534 1.0693593e-38
3.3453903 2.8248186 -1.5749459 7.1905164e-39
3.4886222 2.8243594 -1.5748528 5.7161206e-39
3.4438512 2.8669975 -1.5882784 6.9150142e-39
3.5248108 2.8849938 -1.5921776 8.9436739e-39
3.5999131 2.8643086 -1.5903518 6.3618474e-39
4.19874 2.8554525 -1.5584075 5.8994203e-39
3.9351058 2.4816511 -1.5023606 1.2443501e-38
3.977582 2.5532594 -1.5216603 1.3182146e-38
4.0061274 2.6017559 -1.5346564 4.4250091e-39
4.0541224 2.649358 -1.5116568 9.2141302e-39
4.2324476 2.6216891 -1.5238465 5.9015783e-39
4.03509 2.6899719 -1.5364906 9.9560252e-39
4.1822114 2.6858971 -1.5123003 6.170594e-39
4.2438216 2.6777477 -1.501722 5.7139584e-39
4.0075407 2.7151012 -1.5337844 1.0879065e-38
4.1016483 2.7118273 -1.517207 1.01368e-38
4.2151828 2.7388234 -1.5263184 5.6199397e-39
4.2861652 2.7370746 -1.5038548 6.9132177e-39
4.0191388 2.7646317 -1.5223615 8.3926652e-39
4.0953393 2.7546313 -1.5181106 1.0232968e-38
4.2108669 2.7681062 -1.5269365 4.6997953e-39
4.2897797 2.7877328 -1.52332 4.702319e-39
4.0316701 2.8041372 -1.5292356 4.0594706e-39
4.2251372 2.809597 -1.5342628 4.8856341e-39
3.9343417 2.4821203 -1.4747893 9.2173798e-39
3.9283144 2.5230114 -1.4756525 5.8997832e-39
3.9969015 2.5371346 -1.4714024 7.0979607e-39
4.0009861 2.509423 -1.4708176 5.3469626e-39
3.9727407 2.5813301 -1.4943324 7.1901591e-39
4.0254507 2.5855293 -1.4839406 8.2950591e-39
4.1375227 2.5948906 -1.4919953 8.2950591e-39
4.1510296 2.6346571 -1.4989626 6.2620693e-39
4.3021231 2.6988306 -1.4912878 8.1110364e-39
