# .PCD v0.7 - Point Cloud Data file format
VERSION 0.7
FIELDS x y z rgb
SIZE 4 4 4 4
TYPE F F F F
COUNT 1 1 1 1
WIDTH 166
HEIGHT 1
VIEWPOINT 0 0 0 1 0 0 0
POINTS 166
DATA ascii
1.1060473 -0.14433852 -0.65088499 1.3093937e-38
1.1543183 -0.11906609 -0.65906036 1.5954168e-38
1.0770879 -0.22326034 -0.62106687 1.0236963e-38
1.0887341 -0.17753339 -0.61659324 1.0141155e-38
1.0959573 -0.146898 -0.61638653 1.050957e-38
1.1477115 -0.12719473 -0.63270962 1.6046004e-38
1.0731165 -0.22160017 -0.57015455 8.4856077e-39
1.0834475 -0.17891631 -0.5730567 1.0603216e-38
1.0916992 -0.14276104 -0.57264376 1.1154226e-38
1.074137 -0.21767974 -0.51782566 1.0144773e-38
1.0839142 -0.18044332 -0.51969683 1.0234078e-38
1.0884694 -0.13280767 -0.52538121 1.2445694e-38
1.1166744 -0.11208701 -0.51573133 1.5583587e-38
1.075581 -0.21076873 -0.470321 8.5770873e-39
1.084872 -0.17721334 -0.46902367 9.9585742e-39
1.0898061 -0.12890834 -0.47192842 1.1616651e-38
1.1138294 -0.11957209 -0.46874458 1.3645673e-38
1.0742956 -0.21173196 -0.42089558 9.8678247e-39
1.1020976 -0.205709 -0.4008975 2.9524266e-39
1.0812221 -0.17880717 -0.4170129 1.0511032e-38
1.1073481 -0.16970736 -0.41749811 8.7600268e-39
1.0920532 -0.12640595 -0.41915232 1.1430818e-38
1.1112925 -0.11917197 -0.42461845 1.124823e-38
1.072989 -0.20618971 -0.36998522 8.8529511e-39
1.1051918 -0.20641223 -0.37593031 4.3357282e-39
1.0773144 -0.17732118 -0.3669908 9.128459e-39
1.1162126 -0.17494616 -0.36895335 4.3339219e-39
1.0918661 -0.11897977 -0.37574774 1.253789e-38
1.1240792 -0.11443719 -0.36618853 5.9930789e-39
1.0972373 -0.097657979 -0.36740154 1.2169825e-38
1.103488 -0.093350515 -0.37516826 1.1431897e-38
1.0784559 -0.20168675 -0.33812809 1.1341876e-38
1.0799814 -0.1783376 -0.31578159 1.0512474e-38
1.1117288 -0.18427809 -0.31945315 3.5048815e-39
1.0905447 -0.12382406 -0.3222034 1.1799606e-38
1.1149503 -0.11789387 -0.31818327 8.2990514e-39
1.0981675 -0.09069322 -0.33378577 1.1338253e-38
1.1208649 -0.077260368 -0.32189357 1.3091781e-38
1.1697235 -0.064651601 -0.32209885 1.6597737e-38
1.0775671 -0.18026702 -0.26904437 1.0973455e-38
1.1179931 -0.17644143 -0.27194202 5.3484381e-39
1.0884365 -0.13074954 -0.27488968 1.2260585e-38
1.1156837 -0.12849355 -0.27507454 7.6533275e-39
1.0874804 -0.096555218 -0.2641409 1.327474e-38
1.1126692 -0.083233923 -0.27896312 1.2814115e-38
1.0776311 -0.17498684 -0.21844906 1.0512479e-38
1.1177788 -0.17596433 -0.22319423 5.0718527e-39
1.0894758 -0.12641847 -0.22253764 1.1340069e-38
1.1178257 -0.11825532 -0.22643901 8.4834511e-39
1.0884209 -0.082026787 -0.22550802 1.2813393e-38
1.111093 -0.077129297 -0.23874614 1.308817e-38
1.168496 -0.071862549 -0.20405123 1.8069259e-38
1.0786556 -0.17093879 -0.16898106 1.1895775e-38
1.1159896 -0.17546874 -0.17144722 5.2562453e-39
1.0840054 -0.11912099 -0.16984859 1.2630094e-38
1.1084293 -0.12314133 -0.17316623 9.4983261e-39
1.0457984 -0.058348529 -0.16915497 1.7149472e-38
1.0794666 -0.078197725 -0.17176853 1.5027533e-38
1.1132996 -0.07634145 -0.18721223 1.1892883e-38
1.1612023 -0.06863521 -0.18259135 1.8160737e-38
1.1266081 -0.049910419 -0.19286858 1.2538607e-38
1.0800556 -0.16787903 -0.12511989 1.2910286e-38
1.1103926 -0.1712499 -0.11714657 3.3194084e-39
1.0925183 -0.11783554 -0.12377323 1.1709578e-38
1.1122117 -0.11323062 -0.12505543 8.2987011e-39
1.0911245 -0.075046122 -0.12430072 1.3644241e-38
1.11418 -0.06850028 -0.13323689 1.2721196e-38
1.1354932 -0.045843229 -0.12531219 1.0969476e-38
1.0813193 -0.15602341 -0.067070402 1.1159295e-38
1.111483 -0.16634172 -0.07423687 3.5967212e-39
1.0911082 -0.11256526 -0.071012169 1.2262031e-38
1.1101223 -0.1102311 -0.080830932 9.9589483e-39
1.089251 -0.070972919 -0.069056764 1.2538253e-38
1.1111645 -0.067828156 -0.08486592 1.3275457e-38
1.0958766 -0.038164202 -0.05085963 7.9280899e-39
1.1217651 -0.040410031 -0.084841907 1.1800683e-38
1.0837145 -0.15403965 -0.0094175749 1.0329537e-38
1.1204783 -0.15685976 -0.019811157 5.625395e-39
1.090278 -0.12203914 -0.021897698 1.1894332e-38
1.1161327 -0.11428285 -0.02489727 9.2203001e-39
1.0935445 -0.066799194 -0.02669055 1.2445341e-38
1.1151105 -0.078057282 -0.035507664 9.7727438e-39
1.0972631 -0.036942184 -0.040123492 5.8057855e-39
1.1230971 -0.032564674 -0.023320476 1.3090706e-38
1.0975159 -0.15589845 0.034572162 1.106782e-38
1.120497 -0.15413226 0.031149516 4.7949126e-39
1.0813327 -0.13399562 0.033304952 1.1251852e-38
1.1097248 -0.11292847 0.026006266 1.0051141e-38
1.091213 -0.080075584 0.027244106 1.2538617e-38
1.1094728 -0.061880242 0.022381194 1.1892885e-38
1.1223084 -0.026274765 0.031599466 1.5764377e-38
1.1082723 -0.15111676 0.084714264 9.2224679e-39
1.0774058 -0.12923424 0.083874792 1.1343685e-38
1.1089475 -0.10952419 0.076455168 9.7752815e-39
1.088975 -0.077088237 0.071549609 1.1987965e-38
1.1112282 -0.056335073 0.071208186 1.1063487e-38
1.1207678 -0.025320683 0.061959691 1.1985439e-38
1.034379 -0.1032951 0.14540038 7.0961614e-39
1.0772182 -0.13669376 0.12889008 1.0974537e-38
1.1117449 -0.13341008 0.13519473 9.4997764e-39
1.091825 -0.071716122 0.12706606 1.0879807e-38
1.1148562 -0.081354715 0.12552431 1.0142979e-38
1.1211997 -0.03181611 0.11425104 1.0878372e-38
1.1298276 0.0020632315 0.10429071 1.1985803e-38
1.0848426 -0.13870165 0.1775735 8.9455068e-39
1.1150163 -0.12511411 0.18264568 8.8540441e-39
1.0493913 -0.071726821 0.16682571 7.2801981e-39
1.0935738 -0.072249353 0.16970909 1.1527347e-38
1.116601 -0.078636706 0.17471772 1.0512122e-38
1.0961806 -0.037910782 0.17802626 1.1522296e-38
1.1193489 -0.027714053 0.16698296 1.1431186e-38
1.0554903 0.015386846 0.17819896 1.7054752e-38
1.0918305 -0.14036945 0.21488699 1.0328445e-38
1.1157434 -0.12350595 0.22589621 7.839532e-39
1.0944277 -0.087104157 0.20608227 1.374005e-38
1.1174746 -0.07560017 0.22144227 1.0328092e-38
1.0981345 -0.045428347 0.20338427 1.2815927e-38
1.1246094 -0.034401286 0.21909666 1.0785457e-38
1.1907994 -0.019985784 0.24259704 7.6489835e-39
1.1178874 0.0014085248 0.20519146 1.3550609e-38
1.126478 -0.12983908 0.28816819 4.6097913e-39
1.1235366 -0.072855137 0.27412617 9.1288303e-39
1.1274725 -0.030681005 0.27209035 9.6798335e-39
1.1309882 0.018519223 0.26093119 7.8348209e-39
1.1276662 -0.11480083 0.33246425 5.4424485e-39
1.1255541 -0.06998089 0.32079887 8.39271e-39
1.1294885 -0.025732487 0.31774941 8.6674822e-39
1.1260612 0.008768687 0.30079162 1.2724809e-38
1.1159153 -0.11203992 0.35758787 4.1506222e-39
1.1325018 -0.074568547 0.35908449 4.1477229e-39
1.1385143 -0.036756206 0.36057669 2.5818266e-39
1.1442239 -0.038856935 0.44264415 1.7636182e-39
1.1516538 -0.031000409 0.43655214 1.1095902e-39
1.1400597 -0.038422212 0.45812401 7.5726716e-39
4.5218682 1.3044558 -2.5112236 1.5762182e-38
4.5777702 1.3368362 -2.5090871 1.2626816e-38
4.6106648 1.3932678 -2.528604 5.4387953e-39
4.4763761 1.1399665 -2.4803212 1.2536055e-38
4.4718509 1.259784 -2.4667225 1.3641322e-38
4.4234409 1.3350166 -2.4604392 1.2811925e-38
4.4817309 1.3228155 -2.4907598 1.5576361e-38
4.6127801 1.3322891 -2.4939094 5.6235495e-39
4.4835162 1.3837655 -2.4942393 7.8362446e-39
4.3981357 1.1492144 -2.4393263 1.2075796e-38
4.4210691 1.1261077 -2.4185429 5.8079407e-39
4.360868 1.1686599 -2.4204252 5.4398869e-39
4.5490685 1.1608325 -2.4211719 1.014295e-38
4.3808141 1.2037104 -2.4324322 6.9135722e-39
4.4790664 1.247836 -2.4055016 5.3451689e-39
4.5858927 1.2173636 -2.4092674 7.0054063e-39
4.5326014 1.2785941 -2.4177971 7.0976104e-39
4.618844 1.2729713 -2.4280963 1.0692514e-38
4.3890743 1.3322325 -2.4069421 7.6507813e-39
4.365612 1.141345 -2.3745036 7.0054007e-39
4.42486 1.1277026 -2.3886642 6.730976e-39
4.3473849 1.1657652 -2.3660867 7.6464457e-39
4.4395323 1.1769729 -2.3663154 6.3618474e-39
4.4272814 1.2207825 -2.3870783 8.5705656e-39
4.3100348 1.2647374 -2.3646963 7.7436916e-39
4.354866 1.3208207 -2.356915 8.8514853e-39
4.4776368 1.3874731 -2.3896732 7.9277241e-39
4.2785072 1.2688022 -2.3165088 8.4808951e-39
4.3781209 1.3270777 -2.337647 9.9552993e-39
4.4599633 1.3513134 -2.3484731 6.3585978e-39
4.4833808 1.2672112 -2.2968063 6.6355504e-39
4.4038515 1.3038931 -2.2879105 7.7433329e-39
