# .PCD v0.7 - Point Cloud Data file format
VERSION 0.7
FIELDS x y z rgb
SIZE 4 4 4 4
TYPE F F F F
COUNT 1 1 1 1
WIDTH 199
HEIGHT 1
VIEWPOINT 0 0 0 1 0 0 0
POINTS 199
DATA ascii
4.5600691 1.2968308 -3.3507667 7.4653013e-39
4.5969005 1.2264767 -3.2530234 1.1153121e-38
4.388227 1.2711124 -3.2710357 7.6504114e-39
4.543107 1.2648313 -3.2983043 7.6475373e-39
4.6224017 1.175356 -3.2235854 7.7411679e-39
4.4854403 1.22132 -3.2187512 9.2152162e-39
4.53405 1.2392384 -3.2163227 1.1982887e-38
4.6243358 1.2070645 -3.2301548 1.1981435e-38
4.4494505 1.3009027 -3.2096553 9.4024759e-39
4.6053963 1.1437625 -3.1715248 1.0046409e-38
4.6073203 1.1753179 -3.1780627 1.2626454e-38
0.94232661 -0.12747461 -0.66060299 1.0049684e-38
0.9570353 -0.068741471 -0.66921347 1.0047157e-38
0.94963986 -0.033258043 -0.67037499 1.0231903e-38
0.96516484 -0.029518001 -0.66090912 1.0508854e-38
0.95235264 -0.10945029 -0.63106394 9.130261e-39
0.96029484 -0.05876185 -0.61569172 1.0323746e-38
0.93303072 -0.015468352 -0.61931431 1.4660906e-38
0.96058398 -0.020281835 -0.62034857 1.1800318e-38
1.025916 0.013640992 -0.62708479 1.6322233e-38
1.0501809 0.026266575 -0.62137562 1.6966878e-38
0.95783788 -0.10686897 -0.58398604 7.5618521e-39
0.95728999 -0.072250761 -0.56766659 9.3117628e-39
0.94879746 -0.0086815357 -0.55518121 1.0600345e-38
0.96129358 -0.012729369 -0.57572675 1.207655e-38
0.9632991 0.00017090142 -0.5508005 1.5306281e-38
1.0231953 0.015254773 -0.59616733 1.6782491e-38
0.94583207 -0.072872452 -0.51451701 3.7811124e-39
0.95452768 -0.077771537 -0.52351207 9.7738242e-39
0.94731629 -0.016840842 -0.52041638 1.1154951e-38
0.96325564 -0.033238832 -0.52221209 1.0600693e-38
0.97942734 0.010852654 -0.51916754 1.4476517e-38
0.94707239 -0.078757167 -0.45361239 8.9447908e-39
0.95671386 -0.073535167 -0.48192498 9.2202945e-39
0.95736277 -0.033187132 -0.46987367 1.0324469e-38
0.96029758 0.014424316 -0.47280145 1.1154226e-38
0.95766729 -0.072865747 -0.4263837 9.0373451e-39
0.9572134 -0.026141113 -0.41943282 1.0048247e-38
0.95698273 0.013572559 -0.4269146 1.0602499e-38
0.95881832 -0.064545311 -0.36854026 1.0696866e-38
0.95826811 -0.02096975 -0.37106708 1.0509946e-38
0.96616286 0.031732723 -0.38105974 1.3829707e-38
0.94777626 0.063127026 -0.35003254 1.5208306e-38
0.97741616 0.070389196 -0.36484256 1.3371243e-38
0.92199951 -0.061507255 -0.31971967 1.5123694e-38
0.95756996 -0.056365311 -0.32455951 9.0373479e-39
0.92251724 -0.033616059 -0.32273361 7.8387977e-39
0.95932078 -0.017376103 -0.32846218 1.1063484e-38
0.92749876 0.03167484 -0.33029097 1.2631163e-38
0.96106124 0.031456333 -0.32866436 1.2261661e-38
0.93901211 0.06133388 -0.30685887 1.4108818e-38
0.96027184 0.081959695 -0.32281253 1.6046364e-38
0.9173677 -0.056282599 -0.27496374 1.4015542e-38
0.96332502 -0.052356977 -0.27785242 6.9172086e-39
0.93440503 -0.03807747 -0.28131056 9.5916035e-39
0.95880985 -0.01400899 -0.27935278 1.0234808e-38
0.92361492 0.021055697 -0.27448535 1.0695057e-38
0.9613893 0.036543898 -0.27704072 1.216911e-38
0.93184149 0.057858638 -0.26106828 1.5212646e-38
0.97034198 0.060461935 -0.27621123 1.2907391e-38
1.0169109 0.05960346 -0.28784841 1.7531589e-39
0.96642572 -0.051003184 -0.23693985 4.4268476e-39
0.93303216 -0.031454366 -0.2312426 1.0144779e-38
0.96016258 -0.027614646 -0.22894923 1.0512841e-38
0.95699221 0.027084624 -0.23072267 1.1708853e-38
0.93679428 0.075431257 -0.20792377 1.2998501e-38
0.96380746 0.066243872 -0.23215646 1.3272561e-38
0.93363893 -0.024146365 -0.18382373 9.130268e-39
0.96008086 -0.029434789 -0.17954555 9.4997708e-39
0.92057532 0.029240971 -0.19902548 1.1431183e-38
0.95905346 0.012752671 -0.17499971 1.1432994e-38
0.93491781 0.074707538 -0.1747822 1.4290684e-38
0.95999151 0.06229287 -0.17462988 1.3828993e-38
0.91707379 -0.01039728 -0.14463332 9.4075752e-39
0.95862126 -0.02240162 -0.12219251 1.042101e-38
0.92156756 0.019396912 -0.12214172 7.1008782e-39
0.9606759 0.017112555 -0.12357875 1.1986885e-38
0.92291337 0.087242521 -0.10568509 1.1892522e-38
0.95649278 0.063900001 -0.12175848 1.2630452e-38
0.91848105 -0.0049890447 -0.09468019 9.9603916e-39
0.95568806 -0.011280627 -0.072933264 1.0882709e-38
0.93337864 0.02354913 -0.057364151 1.0420644e-38
0.9577927 0.022161409 -0.078779161 1.0419201e-38
0.93677694 0.077516161 -0.070970312 1.198508e-38
0.97137398 0.08023911 -0.082854986 1.3460929e-38
0.91324741 0.11004423 -0.082527682 1.3088172e-38
0.96197224 0.10580646 -0.065827377 1.1156389e-38
0.94817388 -0.004222855 -0.022784218 1.1713556e-38
0.96412253 -0.008575609 -0.028947441 1.1067465e-38
0.9336465 0.019847056 -0.019200252 9.7763619e-39
0.97277617 0.022529446 -0.026525652 1.0882711e-38
0.93310535 0.070283756 -0.017733393 1.1709216e-38
0.9724865 0.081764139 -0.033499215 1.3738603e-38
0.9328382 0.11387867 -0.021371365 1.4749862e-38
0.97898382 0.10674542 -0.028577199 1.3921544e-38
1.0206006 0.1296128 -0.0082053756 1.2629732e-38
0.97520864 -0.0024963845 0.012267115 8.5771013e-39
0.92581683 0.023323691 0.024244547 1.0146229e-38
0.95725489 0.01979116 0.025896547 1.1251493e-38
0.9319821 0.069796555 0.03080631 1.1526273e-38
0.96296191 0.081869006 0.021234915 1.2170557e-38
0.93517274 0.11321566 0.025207231 1.3922993e-38
0.98231769 0.12616679 0.033540666 1.6781054e-38
1.0284134 0.1282358 0.021098478 8.757517e-39
1.0345488 0.1575413 0.029272862 1.8623883e-38
0.96580249 -0.0018191861 0.050259031 8.0177884e-39
0.92457753 0.027674878 0.073106483 8.5774586e-39
0.95938706 0.026638538 0.065407574 1.0605764e-38
0.93144959 0.073418543 0.083575755 1.1525194e-38
0.96468794 0.091199182 0.062741026 1.2078725e-38
0.93525219 0.12570007 0.080973402 1.2723005e-38
0.98480952 0.13377705 0.07544934 1.4015182e-38
1.028306 0.15936366 0.07041382 1.6598104e-38
0.93131584 0.03653961 0.12029937 1.0882716e-38
0.97047168 0.033382092 0.12439539 1.1712474e-38
0.93420953 0.077096231 0.1298216 1.1617749e-38
0.97404402 0.091851562 0.12559356 1.2538984e-38
0.93470228 0.12772828 0.13267379 1.3183988e-38
0.97417259 0.12360904 0.12162855 1.2997431e-38
1.003875 0.14353687 0.11251003 8.5727446e-39
0.92972118 0.039709933 0.17105567 5.9034252e-39
0.97246605 0.026215766 0.16429693 1.2634798e-38
0.93760371 0.075160697 0.18863243 1.1711031e-38
0.97545552 0.063668065 0.1717229 1.1896144e-38
0.93744779 0.13222042 0.18086883 1.3184351e-38
0.96873343 0.12343639 0.17542659 1.2999239e-38
0.93434447 0.15631308 0.19997805 1.5120808e-38
0.9918229 0.16313279 0.17612511 1.7057639e-38
1.0193524 0.17812349 0.177864 1.7149473e-38
0.92940491 0.044142 0.20967384 1.1436252e-38
0.97133863 0.035065994 0.21616742 8.9469544e-39
0.9350493 0.065319583 0.24171373 1.0513934e-38
0.97335684 0.063662872 0.21998841 1.1067828e-38
0.93844175 0.1269698 0.23063721 1.2631899e-38
0.97369343 0.11980002 0.21275654 1.1803218e-38
0.94037348 0.16616029 0.22526626 1.1617011e-38
0.99019152 0.16973953 0.22791074 1.2169825e-38
1.0275164 0.18003148 0.22401199 1.207654e-38
0.9734292 0.041161578 0.26648462 6.8282402e-39
0.9350245 0.071962073 0.27935311 1.1714288e-38
0.97465229 0.056780726 0.27262729 8.2979724e-39
1.0072472 0.086707152 0.25528359 8.2932641e-39
0.93624675 0.12358925 0.27234656 1.2173083e-38
0.98177528 0.12481473 0.28152964 9.2210203e-39
0.93590271 0.16016975 0.26318359 1.1710658e-38
0.96763998 0.1722241 0.26255506 8.9440621e-39
1.0090935 0.17537919 0.26129806 5.0678632e-39
0.9809112 0.04679333 0.30061641 1.0174071e-39
0.9666028 0.075183034 0.32051677 5.5320993e-39
0.97471642 0.1286279 0.31710464 9.1320505e-39
0.97726876 0.1526573 0.30484435 3.1364577e-39
0.96914482 0.097725555 0.38795343 6.2645987e-39
0.91525096 0.14512378 0.3999007 5.9880132e-39
0.97356552 0.13352489 0.37511721 5.439168e-39
0.7065233 0.1845199 0.39963946 8.8460833e-39
0.83706439 0.1689194 0.39840901 7.7372022e-39
0.91050822 0.16657409 0.39692348 6.815606e-39
0.98093009 0.15090723 0.37067589 4.5280522e-39
0.59536368 0.22310509 0.39283094 9.2213637e-39
0.60017473 0.20383476 0.3997879 8.4812721e-39
0.67974865 0.20262848 0.39508191 9.2108932e-39
0.85533422 0.14538348 0.41113627 8.2021586e-39
0.93102819 0.13161282 0.43717492 7.2834464e-39
0.97432786 0.11137267 0.41227165 5.8119204e-39
0.67544711 0.18470976 0.40566123 8.8471707e-39
0.72495699 0.16664943 0.41580132 2.0183265e-38
0.78514439 0.17797312 0.42461172 8.4769365e-39
0.80605346 0.15445362 0.40941691 8.7556968e-39
0.92227125 0.17576915 0.41409186 7.5524508e-39
0.57202959 0.22270653 0.42128062 8.3869072e-39
0.61926049 0.21718046 0.44819546 8.0181219e-39
0.92716533 0.12948655 0.46362191 7.011544e-39
0.64558083 0.19770682 0.46627009 8.479463e-39
0.68031132 0.1894719 0.4700518 9.0308333e-39
0.71853685 0.18424392 0.46514428 7.5582354e-39
0.75928223 0.18663731 0.4572798 8.386187e-39
0.8136692 0.16694617 0.46166241 8.3876289e-39
0.85611528 0.15143731 0.46494883 5.8093967e-39
0.46307647 0.24251163 0.45753938 9.583647e-39
0.51326334 0.2338506 0.4528001 9.6758426e-39
0.55888748 0.22202203 0.45469499 8.4780225e-39
0.60806865 0.20806894 0.45929193 8.2954361e-39
0.66138476 0.20425969 0.45389467 7.6500695e-39
0.71156704 0.20351472 0.45586419 8.479463e-39
0.42931569 0.25325766 0.45337015 8.1103217e-39
4.1164174 1.2366387 -3.1543152 7.835153e-39
4.1455536 1.3333069 -3.1566331 9.9549308e-39
4.1560616 1.2245237 -3.1453907 8.0184722e-39
4.2309608 1.2351861 -3.112041 1.087617e-38
4.2837315 1.2171865 -3.1256936 1.2442769e-38
4.3273973 1.2193869 -3.1194217 1.2166547e-38
4.072011 1.284236 -3.1107249 1.2258743e-38
4.1677933 1.3160089 -3.1350925 9.2155665e-39
4.0152178 1.231544 -3.0859454 7.7411623e-39
4.0910716 1.233513 -3.0876896 9.8623806e-39
4.1275434 1.2189695 -3.0926421 8.5716488e-39
4.1515012 1.229872 -3.0769439 1.2350944e-38
3.9994388 1.2534631 -3.0790675 1.078506e-38
4.1532431 1.2584351 -3.0828617 1.0968009e-38
