# .PCD v0.7 - Point Cloud Data file format
VERSION 0.7
FIELDS x y z rgb
SIZE 4 4 4 4
TYPE F F F F
COUNT 1 1 1 1
WIDTH 163
HEIGHT 1
VIEWPOINT 0 0 0 1 0 0 0
POINTS 163
DATA ascii
4.9442883 0.79182303 -1.3732235 2.3052425e-39
4.9899845 0.79935169 -1.3540224 3.6878252e-39
5.0176954 0.77049357 -1.3926558 5.2533446e-39
5.0142159 0.83527589 -1.3932581 3.6867378e-39
4.9477038 0.69623882 -1.3403752 6.3578943e-39
4.9227648 0.72488314 -1.3344319 3.3179553e-39
4.9676313 0.76378435 -1.3314244 5.2533418e-39
4.8096595 0.6780327 -1.2726778 3.2250408e-39
4.888833 0.66511965 -1.2772784 4.3306667e-39
4.8301978 0.71222752 -1.2787921 4.7909217e-39
4.9193239 0.72528946 -1.2708153 2.7626179e-39
1.1116947 -0.28581202 -0.35328749 5.9016007e-39
1.1278563 -0.24981618 -0.35635534 4.4243028e-39
1.0883119 -0.32701278 -0.32527614 4.6112276e-39
1.112227 -0.2627444 -0.32159844 5.4384604e-39
1.1287642 -0.24378815 -0.3388972 4.7008925e-39
1.081194 -0.32598874 -0.26969886 6.2718378e-39
1.0757794 -0.27110475 -0.26211193 1.0329517e-38
1.1062598 -0.25903252 -0.27461138 5.3459074e-39
1.0884762 -0.22582246 -0.26250476 1.2169811e-38
1.1128764 -0.22922717 -0.26945075 6.3618628e-39
1.094769 -0.19235195 -0.26194087 1.272227e-38
1.0733389 -0.31254768 -0.22571358 5.0725715e-39
1.0812998 -0.26495421 -0.2233237 7.9299074e-39
1.0787482 -0.22660063 -0.21795535 1.2169818e-38
1.1249686 -0.22234328 -0.2177898 7.2852666e-39
1.1647336 -0.21931379 -0.2117755 7.9306374e-39
1.0846174 -0.18667555 -0.21792939 1.3091415e-38
1.0628638 -0.31624889 -0.17420486 5.4420771e-39
1.0689509 -0.27333155 -0.17466062 7.9309934e-39
1.0831046 -0.2230328 -0.1734124 9.6801852e-39
1.1188984 -0.20979512 -0.18960935 8.0228303e-39
1.0784513 -0.18364865 -0.17236184 1.3184332e-38
1.0558515 -0.31018564 -0.12534788 4.9803773e-39
1.0444628 -0.26419672 -0.11357699 1.3925153e-38
1.0666885 -0.27843621 -0.11984358 6.5473415e-39
1.0714555 -0.2202833 -0.12237963 9.3114069e-39
1.0715485 -0.17737357 -0.12182917 1.3921542e-38
1.048609 -0.30268177 -0.076711074 5.1651301e-39
1.0722336 -0.30393371 -0.065940633 6.7342509e-39
1.0372424 -0.25860852 -0.075620666 1.0881975e-38
1.0720963 -0.27714816 -0.06799823 8.2068558e-39
1.0431163 -0.22753197 -0.068400174 1.106528e-38
1.0907042 -0.23390415 -0.062858649 1.1616281e-38
1.1140381 -0.20606512 -0.070953377 8.4816308e-39
1.0634996 -0.17671965 -0.073273897 1.3551317e-38
1.0574267 -0.30196729 -0.04169476 1.1250751e-38
1.0304362 -0.27505058 -0.026198512 8.207946e-39
1.0660378 -0.28586385 -0.015054117 1.0974888e-38
1.036441 -0.2205143 -0.021204341 1.3277622e-38
1.0848539 -0.22423775 -0.019119283 1.235493e-38
1.0545759 -0.17537057 -0.022495165 1.382863e-38
1.0425397 -0.30365872 0.02043584 1.1252197e-38
1.0401487 -0.27895576 0.038393762 1.0420636e-38
1.0595176 -0.27180851 0.032064207 9.130254e-39
1.0190207 -0.23450072 0.025306381 1.1803215e-38
1.0776972 -0.22014807 0.028848371 1.2815194e-38
1.0402074 -0.18892202 0.032465857 1.0137911e-38
1.0529861 -0.17274675 0.030722244 9.4925443e-39
1.062717 -0.13770004 0.038385272 1.4840245e-38
1.0410535 -0.28189969 0.081862271 1.0052215e-38
1.0557518 -0.26929456 0.070933416 9.868182e-39
1.0217782 -0.23032457 0.076870345 1.1802855e-38
1.0632848 -0.22500427 0.080874078 1.2446413e-38
1.0366319 -0.17762077 0.064659745 1.2168385e-38
1.0728104 -0.19427893 0.074217707 1.2723721e-38
1.0442389 -0.13488643 0.075699702 1.8253656e-38
1.0328977 -0.28155375 0.13095433 1.4109908e-38
1.0526307 -0.27254 0.12361956 8.6700004e-39
0.99673766 -0.24397485 0.12411721 1.1250044e-38
1.0238976 -0.2173785 0.12984173 1.207836e-38
1.0585887 -0.21835569 0.13431615 1.3092138e-38
1.1778126 -0.20099996 0.13598864 9.6798349e-39
1.2011096 -0.20025854 0.13095695 1.0048257e-38
1.0214052 -0.16703433 0.1284844 1.4474001e-38
1.0667562 -0.19263734 0.11966585 1.2168028e-38
1.1106882 -0.1953491 0.13519478 1.0233007e-38
1.0314919 -0.13184991 0.11881789 1.6687772e-38
0.99093205 -0.2811079 0.17622289 7.1016069e-39
1.0315849 -0.27039039 0.17751676 1.1158929e-38
0.99161595 -0.22563384 0.17322388 1.2264558e-38
1.0325892 -0.21824272 0.18529178 1.2629728e-38
1.0570167 -0.22822687 0.17269158 1.3275813e-38
1.0275385 -0.17735155 0.17778295 1.2906675e-38
1.0680056 -0.18955496 0.17199284 1.3827905e-38
1.0205096 -0.13585781 0.17144366 1.4749147e-38
0.99425507 -0.26126289 0.22191516 6.3633201e-39
1.0228177 -0.26673773 0.22691055 1.1620269e-38
0.98228133 -0.2220816 0.2229342 1.3462379e-38
1.034471 -0.22116551 0.2277554 1.2446417e-38
0.99999911 -0.15977405 0.21948405 1.4197051e-38
1.0392028 -0.18228769 0.22651674 1.3827904e-38
1.0569477 -0.18165852 0.2215898 1.4010126e-38
1.007607 -0.13058524 0.2214437 1.5301236e-38
0.99202126 -0.26824561 0.27763256 1.0235532e-38
1.0171219 -0.2616744 0.28068307 1.1159654e-38
0.980793 -0.22695285 0.26545778 1.1803939e-38
1.0251985 -0.21710992 0.27601171 1.2907758e-38
0.99019688 -0.15726338 0.26961333 1.4475444e-38
1.0175008 -0.17386612 0.28317016 1.4104499e-38
1.0501113 -0.17331102 0.26906127 1.4197768e-38
0.99540961 -0.12312742 0.2713176 1.4935338e-38
1.0536281 -0.1453823 0.28299785 1.0049326e-38
0.98766804 -0.25688863 0.33318445 1.0421008e-38
1.0155091 -0.26261014 0.32257909 1.4940402e-38
0.9768436 -0.20787394 0.31983173 9.5898043e-39
1.0192348 -0.22641586 0.32708907 1.2079081e-38
0.98167968 -0.15502904 0.31977767 1.4842427e-38
1.02777 -0.16699454 0.32198611 1.3551679e-38
0.98914599 -0.12138781 0.32251948 1.2723363e-38
1.0413905 -0.14196411 0.3097381 1.4194875e-38
0.97712195 -0.25307426 0.38261998 1.0606839e-38
1.0104485 -0.25645703 0.37226352 1.4571623e-38
0.98564076 -0.21486291 0.37899941 1.0420281e-38
1.0131844 -0.23015879 0.37650558 1.6045306e-38
0.97172612 -0.17985038 0.37100759 1.2355672e-38
1.0213292 -0.16750556 0.37360975 1.4750585e-38
0.98047507 -0.11720337 0.37106138 1.3828989e-38
0.97641975 -0.25289106 0.4416264 1.2266359e-38
0.98592615 -0.24110778 0.42407155 1.1619913e-38
1.0118493 -0.21121141 0.41822174 1.2908481e-38
0.94211578 -0.19513792 0.41804159 1.171319e-38
0.9882763 -0.1759433 0.42889977 1.3644243e-38
1.0218868 -0.16429895 0.41952765 1.3920824e-38
0.96389341 -0.13175943 0.41886759 1.4013385e-38
0.95483971 -0.25497761 0.49979803 1.4019515e-38
0.98290318 -0.23440337 0.47592226 1.1529158e-38
1.0034877 -0.2042463 0.46643141 1.4108108e-38
0.92991149 -0.19409379 0.46106538 7.5643773e-39
0.98331475 -0.17264199 0.48204422 1.4935339e-38
1.013623 -0.15899017 0.4664661 1.253897e-38
0.947882 -0.14571635 0.45816857 1.4660555e-38
0.95961547 -0.1105428 0.46125329 1.429106e-38
1.0111982 -0.14596422 0.48763898 1.0233346e-38
0.94932973 -0.25022954 0.5403837 1.2543301e-38
0.97374743 -0.22945821 0.52209949 1.2266724e-38
0.98385942 -0.18345323 0.52380967 1.4198141e-38
1.0048008 -0.16018102 0.51542401 1.4014107e-38
0.94624895 -0.23356155 0.58313519 1.2450754e-38
0.97215676 -0.22527134 0.56907511 1.2174532e-38
0.98125196 -0.17352127 0.56910789 1.3369458e-38
0.93336481 -0.23059303 0.62761903 1.2543659e-38
0.96314692 -0.21854787 0.61665136 1.1436604e-38
0.94854528 -0.18594201 0.62380189 1.3093953e-38
0.96656811 -0.17787367 0.6192112 1.3647122e-38
0.97086525 -0.14767796 0.61495256 1.3829714e-38
0.93544829 -0.22576839 0.66976339 9.8670946e-39
0.94319463 -0.16404085 0.69327319 7.469997e-39
0.96071035 -0.18032038 0.66816378 1.1710653e-38
0.97566503 -0.1428757 0.66216266 1.3184702e-38
0.91396582 -0.2166619 0.71353042 8.1117539e-39
0.92791301 -0.17304836 0.71504736 9.3178725e-39
0.92829686 -0.1603242 0.75072545 8.11753e-39
4.4681649 1.1237478 -1.4515618 4.2420808e-39
4.5674291 1.1181004 -1.4827482 3.227926e-39
4.584374 1.1527838 -1.4597907 3.4112411e-39
4.4970274 1.3081889 -1.4655137 4.7927196e-39
4.42836 1.1430634 -1.4395033 5.2540635e-39
4.3703332 1.1787176 -1.422122 3.3179497e-39
4.463491 1.181796 -1.4231421 3.0428033e-39
4.5032835 1.1624818 -1.4349531 2.9506147e-39
4.4810443 1.2157836 -1.429453 4.4239371e-39
4.4221983 1.2578014 -1.4405696 4.5161327e-39
