# .PCD v0.7 - Point Cloud Data file format
VERSION 0.7
FIELDS x y z rgb
SIZE 4 4 4 4
TYPE F F F F
COUNT 1 1 1 1
WIDTH 276
HEIGHT 1
VIEWPOINT 0 0 0 1 0 0 0
POINTS 276
DATA ascii
4.8618546 -0.55136251 -2.7744222 5.253695e-39
4.8614197 -0.48967582 -2.7741687 7.28091e-39
4.8444428 -0.44224674 -2.7641602 8.0174002e-39
4.8095326 -0.36900207 -2.7780967 8.2961507e-39
4.8730135 -0.39930478 -2.7810097 5.5313566e-39
4.8047609 -0.51410615 -2.740757 5.4373603e-39
4.8684545 -0.5467692 -2.7429657 8.2017901e-39
4.7243767 -0.47294211 -2.7275572 5.2536907e-39
4.7223105 -0.42079204 -2.7261853 7.2809226e-39
4.733274 -0.39226207 -2.7326512 8.6642102e-39
1.0079991 -0.46472394 -0.50187719 9.130617e-39
1.0364897 -0.42224997 -0.51468837 1.0232986e-38
1.0495318 -0.39575809 -0.51836675 1.0138621e-38
1.0106626 -0.47510082 -0.47375995 9.4979519e-39
1.0430901 -0.4182086 -0.48100483 1.0047517e-38
1.0778872 -0.37947512 -0.47230354 1.3000305e-38
1.0286529 -0.45063391 -0.41936964 8.4845301e-39
1.052967 -0.41000023 -0.43245667 1.0138996e-38
1.069514 -0.37705532 -0.43954355 1.1891794e-38
1.1299051 -0.26518196 -0.414318 3.2282932e-39
1.1425625 -0.20917833 -0.408802 5.1622308e-39
1.143126 -0.19392037 -0.42614883 4.6990918e-39
1.1512953 -0.18585119 -0.41066617 5.4398967e-39
1.0408081 -0.44351149 -0.37018302 9.1295408e-39
1.0611469 -0.40178505 -0.38164619 1.0324104e-38
1.0752339 -0.36882412 -0.38976717 1.0968396e-38
1.126806 -0.26021618 -0.37774476 5.4413498e-39
1.1408174 -0.21622786 -0.377597 5.7161277e-39
1.1569712 -0.1782237 -0.37395191 6.1767471e-39
1.0495679 -0.43421513 -0.3250559 9.3135691e-39
1.0767614 -0.3756609 -0.33561316 1.0601414e-38
1.1315187 -0.26016757 -0.32809845 4.1498922e-39
1.138835 -0.23748691 -0.32146493 6.3633061e-39
1.1536382 -0.21646854 -0.32486111 4.2406444e-39
1.1148061 -0.17436324 -0.30064711 1.041378e-38
1.1601992 -0.18198971 -0.32367712 7.0987062e-39
1.2064469 -0.15674232 -0.31166121 9.7698641e-39
1.2791562 -0.16149914 -0.31781289 1.1705611e-38
1.1731026 -0.1467682 -0.32601595 7.7375693e-39
1.0547129 -0.42381465 -0.27677155 8.5760083e-39
1.0761896 -0.38643137 -0.28467339 9.9564078e-39
1.0961964 -0.34837449 -0.29240203 1.1521933e-38
1.1418504 -0.25626761 -0.26495737 2.4903708e-39
1.0816407 -0.24481662 -0.27000874 8.5763628e-39
1.1158844 -0.21624637 -0.27467224 8.6667535e-39
1.1574857 -0.20999835 -0.27368611 5.8086904e-39
1.124398 -0.16898498 -0.26571029 9.1273688e-39
1.1706009 -0.17073046 -0.27643046 7.0054301e-39
1.2070305 -0.15573516 -0.28422007 1.1705972e-38
1.3010136 -0.15638883 -0.27649868 1.1891084e-38
1.0782009 -0.42003334 -0.21929669 1.0696866e-38
1.083338 -0.37811303 -0.23746651 1.0139001e-38
1.1014479 -0.38269767 -0.21699545 9.6798237e-39
1.1157829 -0.34093213 -0.23653799 1.1800678e-38
1.1512585 -0.25187027 -0.22752282 5.6253894e-39
1.0948616 -0.23313981 -0.21503133 8.1153874e-39
1.1285652 -0.22548494 -0.22171617 8.2994158e-39
1.1566149 -0.2256065 -0.22103524 4.7037918e-39
1.1256795 -0.17402716 -0.22321241 9.6805425e-39
1.1726201 -0.17518103 -0.22397716 7.0065119e-39
1.1627517 -0.14589548 -0.22232766 1.3092864e-38
1.2073464 -0.14226685 -0.21644084 1.1615936e-38
1.0797902 -0.4117457 -0.17531824 9.6827117e-39
1.090193 -0.36957094 -0.18732646 1.0416671e-38
1.1055126 -0.37914273 -0.19008473 9.9571322e-39
1.0880779 -0.30581325 -0.18254842 1.9819177e-38
1.1170162 -0.32906026 -0.18690948 1.2630803e-38
1.164003 -0.30773601 -0.15057626 1.669103e-38
1.1802366 -0.25083339 -0.18618289 3.1353829e-39
1.1004052 -0.22357413 -0.16594779 8.6692857e-39
1.1623964 -0.22765961 -0.17142275 5.9030567e-39
1.13024 -0.17260124 -0.17522287 1.0049331e-38
1.1775401 -0.17978108 -0.17400497 6.0845584e-39
1.1488773 -0.1211451 -0.17412606 1.1798508e-38
1.1743345 -0.14182389 -0.17390135 1.0233362e-38
1.2034507 -0.13299507 -0.17268068 6.914675e-39
1.0957166 -0.40622085 -0.13623941 8.5767271e-39
1.0835518 -0.38063642 -0.12924747 1.106457e-38
1.1120468 -0.37259451 -0.14258346 1.0326638e-38
1.1308975 -0.32534209 -0.13631698 1.1154958e-38
1.1638384 -0.31220537 -0.13368845 1.7239504e-38
1.1488968 -0.29267788 -0.10577063 1.6871443e-38
1.1517782 -0.29559085 -0.10318178 1.5671812e-38
1.1104732 -0.2195404 -0.1227314 6.5480673e-39
1.1698797 -0.22535175 -0.12365729 5.9030567e-39
1.1317925 -0.17312641 -0.12543826 9.7734612e-39
1.189169 -0.17015421 -0.12286495 5.623223e-39
1.1478879 -0.14471409 -0.1372827 1.0140803e-38
1.1786149 -0.13500448 -0.13566561 1.1428288e-38
1.206228 -0.13118565 -0.12328973 8.6645927e-39
1.0905443 -0.37801009 -0.076571763 7.7462518e-39
1.1122336 -0.37267566 -0.089206196 9.7738298e-39
1.1459546 -0.32224345 -0.066263907 1.0418468e-38
1.1558874 -0.31051874 -0.05809848 1.0047529e-38
1.142908 -0.2843962 -0.075893939 1.4651513e-38
1.1663543 -0.28567016 -0.061226364 1.5117555e-38
1.115181 -0.20654494 -0.06691435 9.2217406e-39
1.1748044 -0.21854624 -0.073282123 5.9026993e-39
1.1315339 -0.17445469 -0.073696449 9.3121314e-39
1.193498 -0.17203891 -0.075137042 5.5317462e-39
1.1494019 -0.14844315 -0.053631753 1.2721936e-38
1.1605864 -0.12128397 -0.073876843 1.401374e-38
1.2089915 -0.12634623 -0.077076264 1.0138645e-38
1.2805511 -0.13115856 -0.057887286 1.143335e-38
1.0926917 -0.37913966 -0.029573981 1.0051144e-38
1.1230406 -0.3710202 -0.03013929 9.0377053e-39
1.1159655 -0.34079587 -0.043674197 9.6798279e-39
1.1536909 -0.31638879 -0.016687483 1.1062761e-38
1.3300555 -0.32286224 -0.0095017254 1.8714628e-38
1.1460971 -0.29985061 -3.4723431e-05 1.1615216e-38
1.1674076 -0.2997466 -0.038209319 1.2724803e-38
1.1824665 -0.21508113 -0.023963474 6.3633159e-39
1.1300402 -0.18281661 -0.020891488 9.4976086e-39
1.1726142 -0.16361271 -0.020970583 8.3890933e-39
1.2003773 -0.15790839 -0.022574274 4.9767732e-39
1.1728488 -0.12203941 -0.037313908 1.0786536e-38
1.2107751 -0.11859586 -0.026762718 9.9564148e-39
1.1848904 -0.093779907 -0.030124515 1.4474357e-38
1.126109 -0.36923537 0.024995156 9.9596686e-39
1.1200664 -0.33779365 0.0099592172 1.0602873e-38
1.1615143 -0.30942491 0.032755569 1.0971648e-38
1.2538127 -0.30519307 0.012374133 1.889902e-38
1.1115276 -0.2615076 0.0010243356 1.8624242e-38
1.1737957 -0.2838096 0.021263208 1.4195966e-38
1.1910162 -0.20981169 0.024876241 7.2870827e-39
1.2063081 -0.2142323 0.021712532 3.6900028e-39
1.1390624 -0.18247475 0.032836948 1.0606121e-38
1.1700954 -0.1628249 0.025019519 8.5756495e-39
1.2020316 -0.16822396 0.025395704 3.6885595e-39
1.1786051 -0.11766367 0.011872858 1.0601063e-38
1.2129214 -0.12606485 0.01750062 7.9288312e-39
1.1956611 -0.081279397 0.031456221 1.6592328e-38
1.1253822 -0.37082109 0.073998258 9.5916063e-39
1.1411569 -0.34029132 0.069331706 9.86711e-39
1.1671371 -0.30420554 0.081829354 1.0970925e-38
1.1856484 -0.27631021 0.069265373 1.5672181e-38
1.1963582 -0.20738879 0.077247843 4.7963518e-39
1.2090558 -0.21386956 0.088477828 4.7023387e-39
1.142698 -0.18018256 0.075631656 6.546624e-39
1.1769395 -0.17642036 0.063068114 6.6399056e-39
1.2033142 -0.18054332 0.075966634 6.2714833e-39
1.1766063 -0.12095574 0.066057652 1.0601427e-38
1.2172722 -0.13150741 0.072522901 6.4529864e-39
1.2737666 -0.10258129 0.06193535 3.8711304e-39
1.1940391 -0.088768572 0.051649295 1.4842417e-38
1.134707 -0.36291558 0.12216362 9.4990506e-39
1.1401653 -0.33001712 0.10658609 1.0142975e-38
1.152447 -0.34099784 0.12701823 1.0421005e-38
1.1791502 -0.27965796 0.12365907 1.2260945e-38
1.2023305 -0.20477825 0.12164138 4.2413717e-39
1.147857 -0.16084176 0.11201282 1.3554581e-38
1.1564698 -0.16665493 0.12798449 8.7604037e-39
1.2084857 -0.1847028 0.1256126 5.6264712e-39
1.1691207 -0.12936883 0.11713117 8.8518763e-39
1.220981 -0.12806159 0.12343267 6.3618698e-39
1.1921916 -0.095804289 0.11623549 1.0879097e-38
1.2169447 -0.079413183 0.1320184 7.7437182e-39
1.1452155 -0.35559127 0.17864421 1.2356029e-38
1.1430998 -0.33006531 0.15648267 9.8663911e-39
1.1616004 -0.32301307 0.1803022 1.0235895e-38
1.1875815 -0.2747165 0.17288414 1.1340432e-38
1.2078778 -0.2517707 0.18996654 1.327726e-38
1.189875 -0.24139915 0.1660309 1.30907e-38
1.206248 -0.20270301 0.16460386 4.6090724e-39
1.1625092 -0.16673496 0.17217304 9.9607518e-39
1.2125989 -0.18316607 0.17779623 5.3502486e-39
1.1748862 -0.13612556 0.17142528 8.9447964e-39
1.2283061 -0.1255554 0.17278647 6.1774799e-39
1.1939718 -0.098022431 0.15767147 8.8507903e-39
1.219035 -0.071630463 0.17746955 8.8500658e-39
1.2614287 -0.059898749 0.18894857 6.2664091e-39
1.1398185 -0.33860365 0.21049906 9.6845264e-39
1.1641695 -0.32503164 0.2236286 1.1435162e-38
1.1924273 -0.27281871 0.22735654 1.1063129e-38
1.210083 -0.23464 0.21341686 1.0602502e-38
1.2170851 -0.17878851 0.22592324 5.0732988e-39
1.1780739 -0.134983 0.22483909 9.0377165e-39
1.2328074 -0.13361758 0.22424582 5.5328336e-39
1.2201706 -0.081473425 0.2192519 8.7582345e-39
1.2676249 -0.075131908 0.23599985 8.1092343e-39
1.1440076 -0.33108923 0.25973862 8.2997801e-39
1.1683688 -0.32816881 0.26889777 1.2634064e-38
1.1638415 -0.29523861 0.27144423 1.0052229e-38
1.2035419 -0.27056563 0.27735114 1.1063853e-38
1.189037 -0.24770395 0.28257713 1.060359e-38
1.2128835 -0.23749146 0.26108336 1.2444972e-38
1.2204577 -0.17627545 0.27436894 4.8892621e-39
1.2530886 -0.15477046 0.28214893 2.3985339e-39
1.1868926 -0.12723155 0.27159908 9.2224665e-39
1.238585 -0.13032635 0.26455021 4.8889047e-39
1.2556087 -0.12643372 0.28298274 3.3190441e-39
1.2227638 -0.078636974 0.26274854 9.1280988e-39
1.2523994 -0.087998062 0.27088219 3.7811068e-39
1.2314144 -0.045846567 0.27923137 9.2159687e-39
1.1867597 -0.30699188 0.32376885 9.4994163e-39
1.2100037 -0.26160908 0.32526451 1.1156044e-38
1.2236426 -0.23042259 0.31777585 1.1800689e-38
1.2886703 -0.22727308 0.34893513 5.8983441e-39
1.3125114 -0.22657314 0.34393305 5.8047065e-39
1.23124 -0.17147249 0.34466746 3.4126718e-39
1.1926 -0.12755388 0.31964326 7.839532e-39
1.2008357 -0.10402982 0.31833217 1.0051507e-38
1.2541357 -0.1138141 0.33713284 3.5045115e-39
1.2220948 -0.070313454 0.3179214 9.9575022e-39
1.2575318 -0.091981113 0.3374196 1.9451214e-39
1.2316526 -0.039057866 0.30320004 1.1982549e-38
1.2771814 -0.032742709 0.34211016 6.5426387e-39
1.1964566 -0.2977494 0.38354859 9.3150236e-39
1.2173623 -0.25396913 0.37454736 1.0880179e-38
1.2315922 -0.22087206 0.36730948 9.4025221e-39
1.2380321 -0.16045003 0.37985235 2.9513321e-39
1.1932451 -0.12650742 0.3749845 9.2220951e-39
1.209728 -0.11089205 0.38060948 7.6580302e-39
1.2548704 -0.1179268 0.37975782 2.9516951e-39
1.2195251 -0.076542899 0.37430039 8.8536784e-39
1.2568879 -0.089866348 0.37482318 3.0449781e-39
1.2412081 -0.035883442 0.37231353 9.0358962e-39
1.2039734 -0.28922623 0.43374363 9.0398801e-39
1.2323948 -0.22562237 0.42244315 1.0235168e-38
1.2374804 -0.15698773 0.40652069 1.9375446e-39
1.1990654 -0.11844538 0.40758696 8.3022968e-39
1.2388687 -0.14334482 0.41826463 3.0395579e-39
1.263135 -0.11737932 0.42301527 3.1321137e-39
1.1780698 -0.056974698 0.44194639 2.3938326e-39
1.2340672 -0.077090904 0.44411394 1.7499051e-39
1.2656443 -0.08820378 0.40999866 3.5927317e-39
1.1713941 -0.045908399 0.44876993 2.7626151e-39
1.2077471 -0.28171146 0.45465815 8.9484061e-39
1.2287254 -0.11972463 0.46131244 3.3208335e-39
1.2535126 -0.12106004 0.45499694 1.1077783e-39
1.1820347 -0.072570369 0.46313071 8.3083266e-40
1.2130619 -0.090353765 0.48091653 5.7164752e-39
1.2536269 -0.094892249 0.45512131 1.8428196e-39
1.1578823 -0.049155142 0.45873919 1.7502694e-39
1.2177703 -0.0476771 0.477539 4.2359389e-39
1.2635559 -0.035482198 0.46974242 6.3650956e-39
1.2108274 -0.26622677 0.54061699 7.0986894e-39
1.247488 -0.21798514 0.53507501 8.763984e-39
1.2529854 -0.21452922 0.54749167 8.5911465e-39
1.2204103 -0.07564503 0.51205671 4.8831104e-39
1.2471104 -0.039056987 0.50209129 4.7963265e-39
1.250029 -0.031079665 0.50365078 6.7324348e-39
1.2180318 -0.25723052 0.59008646 6.173852e-39
1.2380854 -0.22458631 0.58122587 6.1742107e-39
1.2550545 -0.19903991 0.57760751 6.2635197e-39
1.2377627 -0.0580841 0.57990897 4.7055757e-39
1.2375523 -0.028897276 0.57227093 2.58363e-39
1.2303447 -0.2266078 0.63459235 4.3371505e-39
1.2655727 -0.21351004 0.62169814 5.80651e-39
1.3098937 -0.20047632 0.62774134 7.1861934e-39
1.1896517 -0.17225374 0.62863469 5.1607805e-39
1.2263114 -0.19828346 0.62612343 4.5175733e-39
1.1279876 -0.12401879 0.63487637 8.753166e-39
1.1856008 -0.14073095 0.61977708 6.5379388e-39
1.0602362 -0.06778875 0.63399637 8.476219e-39
0.99894148 -0.0092626922 0.62754834 8.9357482e-39
1.0233355 -0.034398932 0.63161987 8.6595256e-39
1.028179 -0.047679316 0.65747613 8.5644391e-39
4.7418056 2.4434562 1.3182858 4.4253818e-39
4.8045835 2.4454768 1.3395621 4.9785696e-39
4.8258572 2.5171459 1.337747 4.883839e-39
4.8481221 2.4370399 1.3555688 8.3019311e-39
4.7843795 2.4686592 1.3599766 8.394847e-39
4.8491969 2.4714975 1.382264 8.8551105e-39
4.9362168 2.4501259 1.3841213 8.394847e-39
5.0272598 2.5234811 1.3741599 4.5168544e-39
5.0515532 2.5037832 1.384841 4.8863628e-39
5.0748472 2.5793569 1.3830732 4.6083255e-39
4.9373116 2.4852178 1.4113071 9.1298939e-39
5.0289192 2.4819477 1.4278036 9.496489e-39
5.0991321 2.4951503 1.401953 7.8377131e-39
4.9829016 2.6024008 1.4123386 6.7310097e-39
5.1013846 2.5033324 1.4663324 1.1512823e-38
5.0072947 2.5554235 1.4585402 8.9465816e-39
5.1025205 2.571784 1.4903426 1.1054031e-38
5.054913 2.6115708 1.4683453 8.6707164e-39
