# .PCD v0.7 - Point Cloud Data file format
VERSION 0.7
FIELDS x y z rgb
SIZE 4 4 4 4
TYPE F F F F
COUNT 1 1 1 1
WIDTH 132
HEIGHT 1
VIEWPOINT 0 0 0 1 0 0 0
POINTS 132
DATA ascii
4.5506735 1.3443873 -3.1301742 6.361846e-39
4.5308838 1.3698609 -3.1183023 8.0213617e-39
4.5549073 1.4089072 -3.1355085 8.941523e-39
4.4933424 1.3268499 -3.0561442 5.9930607e-39
4.5417042 1.30985 -3.0502834 9.0337186e-39
4.4964719 1.3745505 -3.0600882 7.9284528e-39
4.5007877 1.3289294 -3.0250864 6.2685714e-39
4.5039172 1.3766295 -3.0290303 6.2689301e-39
4.5796838 1.4474957 -3.0436549 7.7415322e-39
4.488183 1.3404502 -2.981853 5.7164766e-39
4.5377212 1.3397595 -2.9768891 6.2678525e-39
4.5313792 1.3899982 -2.9869971 4.9785528e-39
4.5894985 1.3710644 -2.9739733 6.5455198e-39
4.5899549 1.4345299 -2.9950609 6.4511619e-39
4.5984111 1.554858 -2.7604365 7.3731098e-39
4.6561284 1.5955201 -2.770762 6.0834584e-39
4.6155419 1.5183433 -2.7092133 5.8983413e-39
4.6412406 1.5897785 -2.7266126 9.3092237e-39
4.6733518 1.6319995 -2.7104154 9.6819719e-39
4.5952077 1.5426033 -2.6992259 6.8202976e-39
4.6005664 1.5128822 -2.6655393 8.2961535e-39
4.664885 1.5029589 -2.6997466 6.2682028e-39
4.6186705 1.5654805 -2.6601169 8.1117637e-39
4.6562738 1.593977 -2.6639023 5.5292056e-39
4.5595908 1.5299128 -2.6442535 9.6798069e-39
1.0526631 -0.080378935 -0.70768344 1.0786527e-38
1.0589452 -0.048534594 -0.70274115 1.0877638e-38
1.0355846 -0.12508574 -0.69458783 9.6827131e-39
1.042624 -0.097947098 -0.69157159 1.0879812e-38
1.0612351 -0.071316555 -0.66590965 1.1617731e-38
1.0796173 -0.02277071 -0.66063762 1.4105936e-38
1.0392952 -0.12129478 -0.64401007 8.0228373e-39
1.0566838 -0.086848974 -0.62396443 9.588714e-39
1.0722238 -0.02606206 -0.62048709 1.3276171e-38
1.0438402 -0.11698881 -0.57661045 9.3135747e-39
1.054004 -0.11970072 -0.57962179 1.0512828e-38
1.0591528 -0.083941981 -0.58075607 1.0234079e-38
1.0698094 -0.015628109 -0.56724423 1.4844219e-38
1.1167086 0.002992902 -0.57223272 1.6689936e-38
1.0577745 -0.11492086 -0.52822441 1.0051137e-38
1.0634645 -0.078711197 -0.52148539 1.0141166e-38
1.0708692 -0.022386074 -0.50843835 1.2629724e-38
1.0746804 0.0017766096 -0.50289953 1.401446e-38
1.0602318 -0.10904016 -0.47068563 1.0050418e-38
1.0647876 -0.076803386 -0.46660185 9.866024e-39
1.0748546 -0.025791124 -0.4602907 1.0417027e-38
1.0801355 0.0053463578 -0.4596917 1.0969838e-38
1.0619946 -0.10520045 -0.42193562 9.6823544e-39
1.0679851 -0.076979287 -0.41224286 7.2834632e-39
1.0790471 -0.017587123 -0.4144938 9.585826e-39
1.0831578 0.0086301975 -0.41785654 8.5727572e-39
1.0694438 -0.081989348 -0.38586652 9.2192155e-39
1.0775044 -0.020184575 -0.3703171 1.1153873e-38
1.0855688 0.012746491 -0.37534723 1.1981825e-38
1.0711809 -0.079499498 -0.3357105 9.6812754e-39
1.0838363 -0.014911723 -0.31210399 1.1062045e-38
1.0809426 0.017147461 -0.32745418 1.5487065e-38
1.0764648 -0.077036314 -0.28641173 9.5890812e-39
1.0890925 -0.012074723 -0.26128674 1.1062043e-38
1.0353011 0.020990415 -0.27010551 1.7148754e-38
1.09754 0.014060178 -0.27377558 1.069326e-38
1.1105186 0.026179131 -0.26708758 6.3578943e-39
1.0781649 -0.071219094 -0.23494516 9.0362689e-39
1.0906492 -0.022031188 -0.21945061 8.5731202e-39
1.0936121 0.020070095 -0.23010612 1.0970202e-38
1.1018904 0.023468569 -0.21496911 1.1523376e-38
1.075097 -0.07020209 -0.18281285 8.3916212e-39
1.0921773 -0.013886252 -0.18533283 1.0692904e-38
1.1030294 -0.0011416199 -0.16101968 5.7150627e-39
1.0995394 0.010576682 -0.1809134 9.4939975e-39
1.1091712 0.024177287 -0.17088369 1.0232643e-38
1.0887477 -0.067340821 -0.12812592 1.1434803e-38
1.1010208 -0.078268029 -0.10311083 1.8476961e-40
1.0927864 -0.041572988 -0.12499443 1.0419206e-38
1.1053236 -0.010473313 -0.12108465 6.3600691e-39
1.0957402 0.01296509 -0.13244797 1.3920827e-38
1.1109896 0.023198238 -0.12240956 1.1246076e-38
1.0953419 -0.067751765 -0.078271642 9.9593141e-39
1.1045375 -0.060423005 -0.06462279 6.1778471e-39
1.0958891 -0.042250771 -0.08657667 8.0224814e-39
1.1050978 -0.020104054 -0.070067972 8.9426286e-39
1.0986309 0.02015736 -0.088114984 1.4105938e-38
1.1082612 0.033914831 -0.071782678 1.2997789e-38
1.0961742 -0.06385684 -0.030093838 1.0512488e-38
1.1054747 -0.060851209 -0.02547667 6.8232207e-39
1.0981346 -0.040605124 -0.041400395 1.1157492e-38
1.1063268 -0.020517755 -0.020946573 8.6656816e-39
1.1111201 0.0282974 -0.039094742 1.0509586e-38
1.1297473 0.056797937 -0.025286756 6.1749296e-39
1.0979328 -0.065083921 0.024344452 1.3187609e-38
1.1070062 -0.056865163 0.027904943 7.9313731e-39
1.0970008 -0.034941107 0.02309899 1.0697604e-38
1.1113231 -0.020233467 0.029068647 9.2206644e-39
1.1087437 0.028837055 0.019841064 1.0880177e-38
1.1327298 0.060061585 0.014555566 7.4660383e-39
1.11396 -0.053594239 0.078055903 7.100888e-39
1.115629 -0.019898366 0.079276368 9.496894e-39
1.1193633 0.029134117 0.078970954 9.5872819e-39
1.1283569 0.056013681 0.072139859 4.7923665e-39
1.1591952 0.064402029 0.072296627 7.3709518e-39
1.1131748 -0.0542164 0.12640634 5.2558922e-39
1.1158004 -0.029757125 0.12960027 9.9593169e-39
1.1229666 0.030371983 0.12808217 9.8645849e-39
1.1299278 0.056205433 0.11964048 8.3847576e-39
1.1185794 -0.054134704 0.16529249 8.3887387e-39
1.1202754 -0.028478423 0.18056469 9.2221091e-39
1.1257061 0.030837985 0.17752871 9.5880022e-39
1.134726 0.061660256 0.18611643 7.4642391e-39
1.1571813 0.074056566 0.19617209 8.1088686e-39
1.1238155 -0.02816532 0.22403353 9.2210273e-39
1.1280495 0.031694997 0.22397655 9.680558e-39
1.1350944 0.064170621 0.22194389 6.8199543e-39
1.1510406 0.077332124 0.22851074 5.7128696e-39
1.131766 -0.024971146 0.2710377 4.7967175e-39
1.132463 0.025475243 0.27256688 5.9012518e-39
1.1378572 0.062461507 0.27203542 5.1625993e-39
1.1538844 0.079733431 0.2684117 3.0406439e-39
4.3770151 1.8262361 -2.7613621 6.7216027e-39
4.2662559 1.664672 -2.7224276 6.7273803e-39
4.309392 1.6518317 -2.7139888 5.2529691e-39
4.3164091 1.653791 -2.684721 7.0064867e-39
4.2104049 1.7274761 -2.6756392 7.1843914e-39
4.2673454 1.7498572 -2.6606295 5.8032618e-39
4.3499842 1.7834322 -2.6763856 5.9905341e-39
4.1408844 1.6428068 -2.6469316 6.0834584e-39
4.1810975 1.6299491 -2.6377683 6.1767232e-39
4.1368308 1.6617488 -2.6292996 7.4660229e-39
4.2328887 1.6686015 -2.6315875 7.6464499e-39
4.2684498 1.6630746 -2.6244125 5.6206824e-39
4.3180995 1.6678119 -2.6363554 7.7437014e-39
4.2723298 1.7222193 -2.6293027 5.2529719e-39
4.3147306 1.7097048 -2.6197238 1.0511007e-38
