# .PCD v0.7 - Point Cloud Data file format
VERSION 0.7
FIELDS x y z rgb
SIZE 4 4 4 4
TYPE F F F F
COUNT 1 1 1 1
WIDTH 465
HEIGHT 1
VIEWPOINT 0 0 0 1 0 0 0
POINTS 465
DATA ascii
4.8536563 0.79254389 -2.5540161 8.5694936e-39
4.9057121 0.831846 -2.5754607 7.6478905e-39
4.9382014 0.86505377 -2.5531116 4.7930727e-39
5.0159678 0.94012696 -2.5575216 7.0025238e-39
4.8196459 0.72651899 -2.5460191 6.1763701e-39
4.8924365 0.73471427 -2.5486946 6.2689189e-39
4.83395 0.75674748 -2.5235898 4.4239343e-39
4.8860273 0.82532668 -2.5319939 7.093995e-39
5.0660901 0.82256997 -2.5325961 8.3854555e-39
4.9186215 0.86677545 -2.5061903 4.6090458e-39
4.9689236 0.90076059 -2.5038123 7.4681907e-39
5.0456343 0.9412868 -2.5221913 6.451871e-39
4.8361235 0.79609102 -2.4802442 8.1106707e-39
4.854609 0.79770005 -2.4972095 6.5426331e-39
4.9245858 0.77353764 -2.479409 3.9633261e-39
4.8646355 0.82906508 -2.4910412 5.5320853e-39
4.9200678 0.8193391 -2.480722 7.0961642e-39
4.9462471 0.86017442 -2.4891768 5.1615021e-39
4.9625125 0.85801846 -2.4569502 4.6083311e-39
4.979178 0.91360646 -2.4569488 6.5440638e-39
5.0595632 0.96982843 -2.4743626 4.9789059e-39
4.9353528 0.74219644 -2.4390204 5.5328028e-39
4.8905005 0.75283206 -2.408689 1.8439042e-39
4.9431968 0.79016423 -2.4413102 5.434845e-39
4.8947401 0.8084116 -2.4481142 7.0965286e-39
4.9076953 0.84707499 -2.4036603 6.1742093e-39
5.0154052 0.84005398 -2.4183373 5.8079435e-39
5.1027317 0.82057214 -2.4484069 4.2402619e-39
4.9645557 0.88304484 -2.4190481 6.7270174e-39
4.9963942 0.95704931 -2.4094863 5.4370072e-39
5.1227202 1.00551 -2.433567 7.7411651e-39
4.892941 0.72054017 -2.3682721 5.8083065e-39
4.8741221 0.78544807 -2.3729639 8.0170359e-39
4.9083505 0.75106418 -2.3665602 5.5313664e-39
4.9170346 0.83055377 -2.3671637 7.9248403e-39
5.0214996 0.82130432 -2.3561406 4.4246532e-39
4.9352975 0.87398988 -2.3893623 3.871122e-39
4.962429 0.85575688 -2.380043 5.8990672e-39
4.9456587 0.91953588 -2.3884706 6.5433422e-39
5.0353775 0.98826844 -2.3577981 7.4660173e-39
4.8757463 0.71822894 -2.3096159 5.716471e-39
4.9262199 0.74928415 -2.324276 8.571646e-39
4.9571028 0.72166467 -2.3253412 6.0841731e-39
4.8733993 0.77522361 -2.3091373 7.4642223e-39
4.9042001 0.7794137 -2.343684 9.1230177e-39
4.9399796 0.8210147 -2.3194602 1.0779654e-38
4.9821005 0.82975763 -2.3187528 5.899786e-39
5.0471697 0.80639631 -2.319994 3.3175923e-39
4.934195 0.86705089 -2.3260446 6.7277418e-39
4.9721432 0.87969148 -2.3276467 7.2791107e-39
4.9304523 0.91365933 -2.331737 9.4914401e-39
4.9702377 0.94921881 -2.3470693 5.4380848e-39
5.0399151 0.98662555 -2.326607 5.1618553e-39
5.0664864 0.98869079 -2.3056512 7.187641e-39
4.9213428 0.69412434 -2.2973804 4.516483e-39
4.8345799 0.71226925 -2.2573752 5.9930607e-39
4.8624558 0.74702734 -2.2691424 5.8997888e-39
4.920332 0.74379706 -2.2713344 8.2954277e-39
4.8925428 0.78248394 -2.2650731 9.6747468e-39
4.8967891 0.83583713 -2.2985506 5.6188803e-39
4.9465261 0.82223594 -2.2714522 9.9520595e-39
5.017467 0.82088041 -2.2812004 5.8079491e-39
4.9203515 0.87276578 -2.2679911 5.5295546e-39
4.9161835 0.90796071 -2.2759001 1.0044611e-38
4.9645019 0.92363036 -2.2739072 6.2660448e-39
4.8564973 0.68507957 -2.2345939 5.0693037e-39
4.8388624 0.71306813 -2.2259705 5.7164738e-39
4.8667598 0.74782962 -2.2375894 5.3448144e-39
4.9124928 0.72418588 -2.2249167 6.8217451e-39
4.9630756 0.7442928 -2.2225294 6.1760114e-39
4.8708959 0.78296489 -2.2230015 7.4638621e-39
4.9176731 0.75586259 -2.2264287 4.2399116e-39
4.9642315 0.77873427 -2.2208602 6.2667637e-39
4.8798499 0.82825768 -2.2413831 5.8039849e-39
4.9086843 0.82862151 -2.2040024 6.6359035e-39
4.9834561 0.81830239 -2.2378995 6.9121289e-39
4.9237275 0.87516493 -2.2282133 6.8202962e-39
4.9389229 0.78494203 -2.1895003 7.3720252e-39
4.9355822 0.8301599 -2.1820092 7.9273682e-39
4.921207 0.87311721 -2.1699839 8.0202813e-39
4.9177027 0.92680246 -2.1780005 7.3741902e-39
4.9363379 0.96812105 -2.1807365 7.6500555e-39
1.0595086 -0.17067632 -0.65190578 1.1802845e-38
1.074876 -0.12750675 -0.65217787 9.403234e-39
1.208429 -0.065348081 -0.65962243 1.3828624e-38
1.0623305 -0.16607925 -0.61768663 8.6685556e-39
1.0724063 -0.13864401 -0.63017642 1.3184335e-38
1.0893146 -0.085974284 -0.63314706 1.0875832e-38
1.1354785 -0.068301015 -0.63974965 1.4567274e-38
1.0341947 -0.1580101 -0.55745423 1.1895764e-38
1.0624391 -0.17792848 -0.56675553 8.5763614e-39
1.0676376 -0.12989296 -0.56300443 1.1707762e-38
1.080237 -0.085207909 -0.56130427 1.2813751e-38
1.0354923 -0.16610213 -0.52421266 1.0697224e-38
1.0643556 -0.17419694 -0.51862264 9.5901574e-39
1.0496705 -0.13626359 -0.54827666 1.1525537e-38
1.071424 -0.13133295 -0.51507598 1.069361e-38
1.0810497 -0.087597683 -0.52367169 1.189071e-38
1.1592907 -0.070056826 -0.52756369 1.4199575e-38
1.0262868 -0.0037865192 -0.50224119 9.6819845e-39
1.047484 0.041418515 -0.50448573 1.106022e-38
1.058318 0.071789317 -0.50825047 1.0413403e-38
1.0451123 -0.16840322 -0.47683084 9.7741871e-39
1.0605983 -0.17508817 -0.46630213 1.0142249e-38
1.0751115 -0.13589011 -0.46469903 1.1153147e-38
1.0850008 -0.094683886 -0.46507731 1.1337893e-38
1.0179998 -0.026963079 -0.46489322 1.2631526e-38
1.0480597 0.039759785 -0.45213869 1.1153138e-38
1.0590307 0.06959261 -0.45245841 1.2258047e-38
1.046903 -0.17398083 -0.41592318 1.0603228e-38
1.0666358 -0.17269695 -0.42048869 9.958577e-39
1.0856951 -0.12381639 -0.41957763 1.13379e-38
1.0904015 -0.091394603 -0.43351239 1.1983264e-38
1.108129 -0.085459784 -0.42976114 1.3551309e-38
1.0283829 -0.019352496 -0.40455616 1.2355299e-38
1.050419 0.038869739 -0.40335983 1.1521564e-38
1.0601774 0.070652701 -0.40743604 1.3549875e-38
1.093538 -0.2996293 -0.37814969 1.1803207e-38
1.1052812 -0.26887557 -0.37711382 1.0510666e-38
1.124053 -0.22337471 -0.37901068 1.1338616e-38
1.0712066 -0.17306209 -0.37144533 7.6522471e-39
1.1321065 -0.19642285 -0.38128135 1.2999941e-38
1.0841504 -0.1338944 -0.36425123 1.1522293e-38
1.1018074 -0.10437749 -0.37198848 1.2259857e-38
1.0892442 -0.093475603 -0.38377315 1.1153866e-38
1.0279003 -0.025500515 -0.36672387 1.0603586e-38
1.0432523 0.0062356591 -0.36510733 1.2720831e-38
1.0543675 0.037184268 -0.35584089 1.1245336e-38
1.061623 0.065845236 -0.35558113 1.2722277e-38
1.098559 -0.30156648 -0.33204415 9.589793e-39
1.1092516 -0.27075845 -0.33041903 1.0787973e-38
1.1281649 -0.22489062 -0.32920408 1.1523372e-38
1.0736884 -0.16842262 -0.31903905 1.0879093e-38
1.0887098 -0.13403948 -0.3239398 1.1245703e-38
1.1044886 -0.1067384 -0.32168302 1.2168383e-38
1.0904984 -0.09465643 -0.32825863 1.2168377e-38
1.0304378 -0.024994217 -0.30205643 1.1063844e-38
1.0482955 0.016448185 -0.33399406 9.4050389e-39
1.0610464 0.045973979 -0.31091771 1.1061669e-38
1.0661819 0.061393209 -0.30777737 1.1615922e-38
1.1004846 -0.30346176 -0.28235409 9.2217322e-39
1.1139853 -0.27252483 -0.28093871 1.1433347e-38
1.0594633 -0.20244339 -0.28275901 9.681267e-39
1.1315327 -0.22943425 -0.27955058 1.1523736e-38
1.0736579 -0.17110829 -0.26723626 1.0418115e-38
1.0905607 -0.1320563 -0.2699827 1.1430096e-38
1.1070557 -0.10843755 -0.27188072 1.2352412e-38
1.0940781 -0.097646609 -0.26606399 1.0878365e-38
1.1566432 -0.077626109 -0.28384396 1.7885956e-38
1.036781 -0.012663186 -0.25223458 1.0694341e-38
1.0565655 0.030953232 -0.27664322 1.1613045e-38
1.0680984 0.058987096 -0.27538171 1.0877281e-38
1.1017992 -0.3052426 -0.23211369 9.8663855e-39
1.1170771 -0.27497482 -0.2305086 1.0419557e-38
1.0775549 -0.20386106 -0.22202039 8.3908897e-39
1.1356114 -0.23091251 -0.23010994 1.1430818e-38
1.0753572 -0.17334644 -0.21831422 1.1155682e-38
1.1062924 -0.17439865 -0.20415255 1.0880528e-38
1.0928738 -0.13174553 -0.21543963 1.161449e-38
1.1178353 -0.11133151 -0.21427935 1.2352414e-38
1.0952981 -0.09713766 -0.21669161 1.3920104e-38
1.1413379 -0.07940194 -0.21569586 1.1066008e-38
1.0313582 -0.032730456 -0.21864921 1.1063483e-38
1.0611606 0.032836005 -0.20455416 1.2075465e-38
1.1011715 -0.30637324 -0.18113695 1.1434436e-38
1.1184676 -0.27612299 -0.18201074 1.1155321e-38
1.0828316 -0.20530839 -0.17359762 1.0419196e-38
1.1379843 -0.2305398 -0.18093304 1.2444972e-38
1.0763576 -0.17686491 -0.1665044 1.0971654e-38
1.109803 -0.17695633 -0.15881515 1.0419194e-38
1.095129 -0.13685891 -0.16197118 1.1523016e-38
1.1181437 -0.11224762 -0.17395775 1.4472915e-38
1.1350288 -0.095912248 -0.17539251 1.696436e-38
1.1612287 -0.089446843 -0.16197693 1.8344409e-38
1.0343571 -0.030076213 -0.15128258 1.1248958e-38
1.0657312 0.029530041 -0.15188064 1.1892159e-38
1.0943327 0.057613365 -0.1994341 1.7421366e-38
1.1241348 0.056414925 -0.17213848 1.797707e-38
1.1057578 -0.31134963 -0.13137218 1.2172362e-38
1.1231644 -0.27823675 -0.13125411 1.0879458e-38
1.0873964 -0.20740613 -0.12121715 9.7741899e-39
1.1411732 -0.23530591 -0.12942921 1.2168388e-38
1.1750348 -0.21135873 -0.11609421 1.0967667e-38
1.0793886 -0.17986512 -0.11705682 1.0972372e-38
1.1133841 -0.16384335 -0.11017402 1.1431545e-38
1.0939802 -0.14391103 -0.11065003 1.1246069e-38
1.1160831 -0.12154987 -0.12264678 1.3089983e-38
1.1629438 -0.10059501 -0.14089356 1.6598103e-38
1.1235856 -0.098645315 -0.13765046 1.6493258e-38
1.1734166 -0.092453577 -0.12211791 1.8897582e-38
1.0365608 -0.031860359 -0.10054813 1.1156766e-38
1.0705324 0.029910915 -0.10344066 1.161449e-38
1.0954591 0.055745535 -0.11000376 1.5395956e-38
1.1114181 -0.31406534 -0.080526188 9.4057717e-39
1.1257958 -0.27999839 -0.080023251 1.1893246e-38
1.0793657 -0.20380417 -0.069605432 9.1288233e-39
1.123281 -0.22542074 -0.07063698 1.180069e-38
1.1649716 -0.21503341 -0.060994163 1.5486349e-38
1.0842162 -0.17714745 -0.069934577 1.0879096e-38
1.1077642 -0.16899614 -0.072375059 9.5883567e-39
1.0939877 -0.13736668 -0.061417609 1.1707766e-38
1.1136001 -0.12331078 -0.071263112 1.2260941e-38
1.146448 -0.099499255 -0.077132389 1.5851882e-38
1.1849787 -0.0999716 -0.071474835 1.5767981e-38
1.2015637 -0.090234622 -0.070786551 1.6136402e-38
1.0477096 -0.019395128 -0.051101349 1.1432992e-38
1.0729433 0.028086513 -0.054995462 1.2813396e-38
1.1141462 0.017261125 -0.051154628 1.161593e-38
1.084542 0.057990756 -0.075544849 1.6223544e-38
1.1119525 -0.31584233 -0.031812713 1.0327369e-38
1.127322 -0.28149027 -0.031627722 1.1985079e-38
1.0798508 -0.20607153 -0.025781197 9.68236e-39
1.1228648 -0.22808963 -0.020757612 1.1063485e-38
1.0871691 -0.18003379 -0.021355256 1.0327366e-38
1.1096686 -0.16280356 -0.012830069 1.152374e-38
1.1160187 -0.12842105 -0.016296355 1.1340069e-38
1.1658915 -0.10910409 -0.027335286 1.8805746e-38
1.039916 -0.053241327 -0.00087626278 9.8678303e-39
1.0832025 -0.057444721 -0.028467678 1.0053299e-38
1.1754497 -0.091996416 -0.047725752 1.0049678e-38
1.0334742 -0.049143791 -0.048208773 1.1435518e-38
1.0745778 -0.025161251 -0.01647792 1.0696508e-38
1.1084821 -0.0036693215 -0.024988934 1.2078332e-38
1.0770403 0.025904015 -0.004189238 1.2906672e-38
1.1191578 0.020859901 -0.018401146 1.1709567e-38
1.1155667 -0.3204692 0.018409433 1.1804664e-38
1.1282439 -0.2828936 0.016804328 1.0512116e-38
1.0823355 -0.20548111 0.029209893 1.0881623e-38
1.1210399 -0.218354 0.02789486 1.2725169e-38
1.0903305 -0.17533816 0.024912745 1.1340438e-38
1.1103041 -0.16549826 0.037977669 1.1338988e-38
1.1163844 -0.1306643 0.030983107 1.2168388e-38
1.1974649 -0.11183761 0.045714296 1.9910652e-38
1.0455596 -0.056508079 0.048037961 1.0697954e-38
1.0904479 -0.078438938 0.035318933 8.8507791e-39
1.0757303 -0.036600292 0.03396982 7.3781895e-39
1.1037521 -0.028431512 0.026749462 1.1710658e-38
1.0803092 0.023934737 0.046173424 1.1615212e-38
1.1197445 0.012625247 0.047107235 1.1800326e-38
1.0847225 0.054472663 0.020861529 1.4014455e-38
1.1186533 -0.32207966 0.069470972 1.060576e-38
1.1329092 -0.28503698 0.06861221 1.0971654e-38
1.0865237 -0.20807979 0.081540518 9.5912476e-39
1.1320362 -0.21879043 0.071220003 1.0787615e-38
1.0954387 -0.16713324 0.076928735 1.0326282e-38
1.1124249 -0.16795647 0.090677962 1.1063844e-38
1.1189822 -0.13073492 0.086930521 1.207583e-38
1.1639125 -0.11272338 0.06704393 1.2261656e-38
1.0480032 -0.059254229 0.088539273 1.1065652e-38
1.090704 -0.063293524 0.077609763 1.069759e-38
1.0618516 -0.024551526 0.098149016 1.1155682e-38
1.1028601 -0.034090847 0.095596507 1.051067e-38
1.0779749 0.018667087 0.095680684 1.1891799e-38
1.1229056 0.010354623 0.096577942 1.1984356e-38
1.1213088 -0.3241685 0.11871681 9.5916077e-39
1.134496 -0.28661716 0.12032804 1.1525191e-38
1.0870786 -0.20931676 0.12745921 9.1299093e-39
1.1273397 -0.23350108 0.12577364 1.088054e-38
1.097949 -0.1677931 0.12147023 1.1893964e-38
1.1150905 -0.1753971 0.13954768 1.1155684e-38
1.1205117 -0.13609272 0.13291316 1.1800327e-38
1.1800985 -0.11535411 0.12938836 1.2994527e-38
1.0479606 -0.059206277 0.10929322 1.3003205e-38
1.072773 -0.067002602 0.1425665 1.042209e-38
1.0598572 -0.035127323 0.13277234 1.0144783e-38
1.1089222 -0.037318632 0.14510621 1.0051863e-38
1.0812914 0.019213021 0.142397 1.0787254e-38
1.1341558 0.021105271 0.13212773 1.0602862e-38
1.1236835 -0.32861704 0.1693242 9.315381e-39
1.1379341 -0.28846878 0.16945808 1.1710297e-38
1.0910859 -0.21337524 0.1771287 9.3146621e-39
1.1077272 -0.22220792 0.17543192 7.008684e-39
1.1512756 -0.24846013 0.17117873 1.1615219e-38
1.1104722 -0.1698451 0.1829759 1.1709218e-38
1.1169151 -0.13316271 0.17421596 1.1339358e-38
1.1847947 -0.12420996 0.16812193 1.4008321e-38
1.223891 -0.11199176 0.15943272 1.2069675e-38
1.0946159 -0.072789982 0.19438934 1.0604676e-38
1.1108686 -0.039695531 0.19572145 1.1986169e-38
1.1357821 0.019511178 0.17436951 1.3735708e-38
1.1802411 0.027014531 0.17237274 1.6038071e-38
1.2545743 0.024501767 0.17785227 1.8436961e-38
1.1250472 -0.33289227 0.21661185 9.4986904e-39
1.1399176 -0.29006866 0.21844433 1.1432991e-38
1.0920223 -0.22506098 0.23495735 6.3636747e-39
1.1112673 -0.22375469 0.22708033 8.6692927e-39
1.1522057 -0.24920541 0.21827355 1.1523742e-38
1.1277602 -0.17161885 0.24136868 1.1432629e-38
1.0954626 -0.12055263 0.23640487 3.2239576e-39
1.1292672 -0.13333057 0.23482643 9.4943492e-39
1.1868005 -0.12394418 0.23872682 1.2076544e-38
1.0981562 -0.07552287 0.2456013 1.0236257e-38
1.1142108 -0.042428017 0.24695101 1.1433718e-38
1.0966134 0.03636222 0.22275683 1.9266363e-38
1.1297045 0.0030660778 0.2488286 1.2814841e-38
1.1185681 -0.36524388 0.29995647 7.0954425e-39
1.1251131 -0.33399078 0.2672123 9.593414e-39
1.1411952 -0.29151627 0.26731646 1.0052946e-38
1.1559864 -0.25166485 0.26961908 1.0602504e-38
1.0898309 -0.2370742 0.27456579 2.951349e-39
1.1113274 -0.21948284 0.28882402 1.0421011e-38
1.1749278 -0.23375633 0.28831741 6.8181284e-39
1.1293129 -0.16974674 0.28975415 1.1339715e-38
1.1310806 -0.13611779 0.28219351 9.5858204e-39
1.1668675 -0.13107368 0.25941801 9.1212269e-39
1.2175331 -0.12181299 0.28100649 1.1148801e-38
1.0997077 -0.078219995 0.29371291 1.1067101e-38
1.1256512 -0.022785209 0.29625443 1.124824e-38
1.1397557 0.02874697 0.27928397 1.2634771e-38
1.1231034 -0.34252357 0.30075428 8.3008521e-39
1.092706 -0.25519347 0.32569075 7.8319272e-39
1.1447155 -0.2895546 0.30075631 9.9567735e-39
1.1584886 -0.25500342 0.30477944 9.221358e-39
1.0970876 -0.23937446 0.30851805 3.4130502e-39
1.1143489 -0.22423431 0.33376181 9.5001338e-39
1.1310515 -0.16851863 0.33412313 1.0143333e-38
1.1342777 -0.1434668 0.33958828 1.0232997e-38
1.1642666 -0.13579735 0.33546931 7.0947251e-39
1.2303758 -0.12999974 0.32050708 8.4765707e-39
1.2861805 -0.12862435 0.3366667 5.527042e-39
1.1017339 -0.080774859 0.3427062 1.1158579e-38
1.1280547 -0.028006591 0.34325838 1.1524469e-38
1.158185 0.021098703 0.31104037 1.1520477e-38
1.0991912 -0.24931316 0.37078193 3.136099e-39
1.1278785 -0.22454385 0.37679148 8.5781747e-39
1.132513 -0.16311164 0.35878688 7.9295542e-39
1.151011 -0.16274448 0.38507912 1.0697225e-38
1.1279035 -0.1289098 0.36327475 2.1186904e-39
1.1807122 -0.13865608 0.37644187 8.2936298e-39
1.1038405 -0.083379507 0.39003712 8.8562119e-39
1.1330801 -0.022968939 0.38992527 1.0513198e-38
1.142585 0.00047752261 0.36195356 1.2075108e-38
1.1251314 -0.25377461 0.42615125 1.2634397e-38
1.0971185 -0.24714993 0.40814498 2.5836511e-39
1.1075615 -0.22012183 0.40833443 3.6914504e-39
1.1293943 -0.16140537 0.41033614 3.5041654e-39
1.1290309 -0.12995066 0.40990418 2.1179673e-39
1.2377642 -0.13990347 0.40657425 1.3822114e-38
1.1248869 -0.052758589 0.40072858 9.3150194e-39
1.1253619 -0.24748597 0.52446854 9.2184644e-39
1.1538427 -0.20394534 0.52796125 7.9237585e-39
1.1608199 -0.18992932 0.51775926 7.6572693e-39
1.1362197 -0.03378623 0.51983011 6.9330601e-39
1.1336423 -0.23213772 0.56998825 6.7259328e-39
1.1549786 -0.20939934 0.57534254 7.1858319e-39
1.1555729 -0.18983549 0.57544565 8.2892872e-39
1.121287 -0.077364296 0.57921374 6.1742023e-39
1.0891542 -0.035163172 0.59400785 6.543345e-39
1.1337646 -0.03597204 0.56147838 7.3709434e-39
1.0392351 0.00050291419 0.59897053 6.4507948e-39
1.0511853 -0.025947362 0.60395306 4.9785458e-39
4.1805148 -2.8969805 -2.7508879 2.7665709e-39
4.2629828 -2.9355767 -2.7135432 3.5030598e-39
4.2839122 -2.8960962 -2.7011652 3.6885329e-39
4.3127346 -2.7012072 -2.7391455 8.1989258e-39
4.1763005 -2.6845367 -2.7170117 1.1336112e-38
4.2523804 -2.6984155 -2.7419267 1.105195e-38
4.2275076 -2.9163034 -2.6813581 5.1607735e-39
4.258893 -2.9013057 -2.6614275 7.6489666e-39
4.1795392 -2.8782272 -2.6968093 2.7658591e-39
4.269249 -2.8504829 -2.6871758 3.5948981e-39
4.0911956 -2.8003042 -2.6896298 1.9382662e-39
4.1137538 -2.8155141 -2.6703994 3.2264897e-39
4.16155 -2.8132195 -2.6611722 9.6830509e-39
4.2553854 -2.8057425 -2.6737149 4.6097815e-39
4.093689 -2.7561176 -2.6732922 1.0042124e-38
4.1249523 -2.7541313 -2.6671238 1.1611246e-38
4.167202 -2.7822402 -2.6595192 7.0911462e-39
4.1286063 -2.7222593 -2.680954 1.2260222e-38
4.2434773 -2.7450306 -2.6589203 3.9590031e-39
4.2881613 -2.7211437 -2.6820693 4.8813153e-39
4.1342049 -2.6915681 -2.679316 1.207259e-38
4.1821933 -2.6881113 -2.6701729 1.0400094e-38
4.2480903 -2.6954927 -2.6880703 9.5609711e-39
4.3069196 -2.6790829 -2.6731386 5.7150262e-39
4.2729359 -2.6200459 -2.6635981 3.5963344e-39
4.3177109 -2.6316452 -2.6722102 5.1622126e-39
4.1776228 -2.8417068 -2.6434908 6.3582306e-39
4.2276745 -2.8410084 -2.6361055 6.357139e-39
4.2740445 -2.8175287 -2.6055222 6.5433394e-39
4.1479454 -2.7832415 -2.6189418 6.5433394e-39
4.2268639 -2.773663 -2.6318719 5.436996e-39
4.1617413 -2.7332633 -2.6345081 8.0152422e-39
4.2871943 -2.7244053 -2.6284118 9.8616618e-39
4.2402616 -2.7571926 -2.5965626 7.0028812e-39
4.2970061 -2.7781837 -2.5947795 8.6638388e-39
4.8019786 1.093305 -2.3169646 6.8123536e-39
4.7881455 1.1513027 -2.334672 1.2530643e-38
5.1592441 0.93637389 -2.2543528 1.0781094e-38
5.0489902 0.98334038 -2.2642255 9.7705577e-39
5.0986814 0.98925149 -2.2533889 7.1887242e-39
5.190474 0.97171491 -2.2644413 6.4500759e-39
4.736187 1.0461181 -2.2591352 6.4464606e-39
4.887701 1.0472709 -2.2984128 5.8972553e-39
4.7382841 1.081172 -2.2682002 6.0755299e-39
4.9306369 1.0855509 -2.2923477 7.4652985e-39
4.6469989 1.1447618 -2.2656727 1.3361486e-38
4.6749921 1.1240284 -2.2520127 1.4837339e-38
4.7502317 1.1102862 -2.2616544 6.5418932e-39
4.6772485 1.1537853 -2.2801194 1.6405381e-38
4.8910856 1.1631976 -2.250545 2.8566086e-39
4.6771922 1.3134115 -2.2577217 9.6779908e-39
5.0644388 0.81693661 -2.2252479 7.4635062e-39
5.0255547 0.85872668 -2.2354405 7.5564207e-39
5.1135392 0.88411725 -2.2396541 1.1058406e-38
4.9472475 0.9239108 -2.2395887 6.7277404e-39
4.9749298 0.94175398 -2.2340803 7.9266423e-39
5.0360441 0.90484095 -2.2345381 9.6754712e-39
5.0685778 0.95450842 -2.2435899 6.7288278e-39
4.6978931 1.0343564 -2.2102673 6.0830857e-39
4.6418743 1.0826936 -2.224442 6.2642287e-39
4.679493 1.0617354 -2.2296557 6.07912e-39
4.7216578 1.0706608 -2.2111626 7.2798296e-39
4.7924571 1.081436 -2.215837 6.8199417e-39
4.834794 1.0749187 -2.220036 7.9288031e-39
4.9232984 1.0784147 -2.2437825 1.0138975e-38
4.6490874 1.1109066 -2.2080889 6.9124904e-39
4.6757808 1.1168272 -2.221921 6.8202906e-39
4.7753019 1.1240635 -2.2344089 7.3738245e-39
4.8190961 1.1166973 -2.2233868 3.686372e-39
4.8727975 1.1130003 -2.2216997 6.8181284e-39
4.538888 1.1721791 -2.2081614 1.0230447e-38
4.5688105 1.1682881 -2.2208087 1.1889243e-38
4.7225933 1.1711707 -2.2181165 4.6083269e-39
4.783287 1.1740034 -2.2267098 3.8711164e-39
4.8570013 1.1807266 -2.210717 8.6613235e-39
4.5595021 1.2188878 -2.2085969 9.9538546e-39
4.6884422 1.2410581 -2.2083714 9.8631065e-39
4.7411084 1.2146078 -2.211401 6.5379303e-39
4.8387537 1.2282262 -2.2361102 4.5150453e-39
4.5774717 1.2621186 -2.2120624 8.8482301e-39
4.6253891 1.2976629 -2.202044 1.3823197e-38
4.6855607 1.2708068 -2.2063637 1.2256578e-38
4.8343368 1.2909997 -2.2484472 6.5418932e-39
4.7434855 1.3251687 -2.2287793 1.2627887e-38
4.5933967 1.0194556 -2.1705899 5.6213887e-39
4.6736593 1.0085262 -2.1761503 7.0986795e-39
4.5829306 1.0733476 -2.1642442 7.3749035e-39
4.6270781 1.0835733 -2.1529243 4.5161299e-39
4.6810756 1.0912526 -2.1665874 8.9364629e-39
4.7389479 1.0734766 -2.1719439 5.2547824e-39
4.4990478 1.131587 -2.1635923 6.8199319e-39
4.5205622 1.1200837 -2.1736069 9.0311794e-39
4.5948672 1.144071 -2.1769605 8.1092245e-39
4.614192 1.1302006 -2.1885777 7.6496925e-39
4.6666064 1.121068 -2.1758604 8.3861758e-39
4.7897067 1.1386828 -2.1830418 7.2765772e-39
4.8033261 1.1139586 -2.1930249 6.1691478e-39
4.4850717 1.1549052 -2.1534464 7.6496897e-39
4.5108395 1.1839077 -2.1599276 8.571646e-39
4.5980196 1.1893439 -2.1991682 8.9422292e-39
4.6225243 1.1897577 -2.1849642 8.1070581e-39
4.6761408 1.1784363 -2.1818864 5.0660583e-39
4.7131395 1.1519278 -2.174547 8.2965067e-39
4.7580733 1.1888973 -2.1921167 6.9117716e-39
4.803854 1.154443 -2.1989756 3.963675e-39
4.5397859 1.2246063 -2.1674194 1.3732787e-38
4.5913262 1.2376889 -2.193538 7.4656642e-39
4.6470876 1.2218441 -2.1932335 9.7669298e-39
4.7358642 1.2424778 -2.199162 5.4366443e-39
4.5642543 1.2563562 -2.1758118 1.5944403e-38
4.6812072 1.2869546 -2.1986949 8.019917e-39
4.5725574 1.0333953 -2.1397722 7.189436e-39
4.4912257 1.1668456 -2.1242476 8.0188408e-39
4.5373626 1.2196952 -2.1389847 8.3890652e-39
