# .PCD v0.7 - Point Cloud Data file format
VERSION 0.7
FIELDS x y z rgb
SIZE 4 4 4 4
TYPE F F F F
COUNT 1 1 1 1
WIDTH 309
HEIGHT 1
VIEWPOINT 0 0 0 1 0 0 0
POINTS 309
DATA ascii
4.5311918 1.2413912 -2.8087349 5.0711044e-39
4.4150596 1.266153 -2.8158441 7.3752692e-39
4.5031099 1.2636536 -2.8302565 8.0184848e-39
4.575366 1.3214469 -2.806807 1.2994521e-38
4.611505 1.1704444 -2.7745275 7.9266423e-39
4.559339 1.2188567 -2.7868953 7.8344467e-39
4.5243869 1.1773071 -2.7294111 8.1095973e-39
4.3677883 1.2217406 -2.7180395 7.6489835e-39
4.4365811 1.2136836 -2.7038832 9.5840015e-39
4.5486665 1.2179797 -2.7123375 1.3825e-38
4.3640275 1.2827896 -2.7227864 1.3546966e-38
4.4747143 1.1789966 -2.6865103 1.2256594e-38
4.5768976 1.1953349 -2.6900449 1.2350949e-38
4.3727746 1.2243938 -2.6878624 1.511502e-38
4.8350296 -2.1832006 -2.5576944 2.4935924e-39
4.7573709 -2.1264615 -2.574307 2.3092081e-39
4.6807718 -2.2132847 -2.5058765 2.1259001e-39
4.6307716 -2.1506622 -2.519383 2.2170139e-39
4.7920513 -2.1959345 -2.53333 1.8493076e-39
4.8403034 -2.1803944 -2.5257807 2.2173698e-39
4.6724486 -2.12095 -2.5285993 2.3095683e-39
4.7270217 -2.1983454 -2.4983311 2.2180901e-39
4.8278246 -2.1649969 -2.4512424 2.0329786e-39
4.5937805 -2.1145926 -2.4697223 2.125177e-39
4.7775283 -2.1486008 -2.4617267 2.0329814e-39
4.8435903 -2.1453075 -2.496376 2.4921617e-39
4.8370318 -2.226455 -2.4144864 2.1251742e-39
4.8350515 -2.1943295 -2.4169846 1.7563945e-39
4.534481 -2.1181917 -2.437201 2.0337017e-39
4.7970462 -2.2039435 -2.362402 1.757112e-39
4.8706527 -2.2309251 -2.3611917 2.4935924e-39
4.7729592 -2.162622 -2.3549185 2.4010422e-39
4.7277341 -2.1126535 -2.3378754 2.4921617e-39
4.8478308 -2.1377637 -2.3254514 2.5847146e-39
4.7521 -2.0873363 -2.3186984 2.4925134e-39
4.6895418 -2.091655 -2.2876358 2.2170055e-39
3.8529103 2.0020614 -2.261899 5.6235495e-39
3.8418641 1.9956361 -2.2270703 9.2180874e-39
3.8772025 2.0155337 -2.2165813 8.8493049e-39
3.9264162 2.0716863 -2.2157202 5.2529719e-39
3.7887206 1.9379457 -2.1677008 9.1258918e-39
3.8675175 2.0238252 -2.1695209 1.0602109e-38
3.9206276 2.0397 -2.1511903 9.2188161e-39
3.7930424 1.9402455 -2.1415472 8.9414977e-39
3.7957351 1.9689995 -2.1174498 6.1763701e-39
1.0532383 -0.24053584 -0.65122461 9.2058709e-39
1.0597894 -0.25866121 -0.63447797 8.8536643e-39
1.0447317 -0.24684505 -0.61951643 9.4043228e-39
1.0642674 -0.22467691 -0.62503856 1.2171988e-38
1.0716202 -0.17760336 -0.6250664 1.1246058e-38
1.0497988 -0.24253537 -0.57231283 9.3142894e-39
1.0589062 -0.22258858 -0.58450872 8.9440607e-39
1.0640726 -0.16758652 -0.56817096 1.1614484e-38
1.1305422 -0.13893095 -0.58365053 1.5769058e-38
1.0454681 -0.24187583 -0.51650286 9.0369808e-39
1.0572273 -0.2140363 -0.54051501 1.0510305e-38
1.0580297 -0.16328873 -0.51744473 1.1891434e-38
1.0408649 -0.23808351 -0.46835086 1.0051494e-38
1.0579293 -0.23522857 -0.49960929 1.0144413e-38
1.0457991 -0.18211786 -0.47548917 1.0876924e-38
1.0522802 -0.17083475 -0.4714385 1.1890355e-38
1.054721 -0.14832932 -0.45357403 1.198327e-38
1.0410039 -0.23319423 -0.41941559 1.0603228e-38
1.0532318 -0.23122065 -0.44848183 1.0051494e-38
1.0460891 -0.17724071 -0.41342312 1.14301e-38
1.0522156 -0.14515568 -0.40468973 1.2720839e-38
1.0715232 -0.046116307 -0.40177333 8.2994172e-39
1.04096 -0.22769797 -0.38340747 8.5756453e-39
1.0420115 -0.1835497 -0.36216477 1.1523738e-38
1.0573376 -0.16084954 -0.36503109 5.9948852e-39
1.0446504 -0.14377792 -0.36556494 1.2259861e-38
1.0600786 -0.12380246 -0.36552942 9.3121145e-39
1.0624437 -0.077096894 -0.36945367 8.2965221e-39
1.0478305 -0.034775604 -0.35535982 8.3001388e-39
1.0593095 -0.031815838 -0.36959383 8.3923345e-39
1.0359374 -0.22356592 -0.33370546 9.6823544e-39
1.036829 -0.17958188 -0.31105953 1.2167669e-38
1.0532393 -0.16058703 -0.32624698 8.0231904e-39
1.0423695 -0.13725531 -0.31417912 1.2904509e-38
1.0567148 -0.13146994 -0.32202035 6.3625845e-39
1.0586747 -0.076071687 -0.32283178 9.1266471e-39
1.0493219 -0.034907717 -0.34562171 8.6682025e-39
1.0574343 -0.033202607 -0.31385124 9.1281016e-39
1.1402029 -0.028552212 -0.30137441 9.6812754e-39
1.1761335 -0.022298496 -0.30703056 9.6812768e-39
1.0294235 -0.2158781 -0.28941566 1.2632978e-38
1.0403435 -0.16936095 -0.2629022 9.7734668e-39
1.0409656 -0.13012485 -0.26335105 1.3827188e-38
1.0523722 -0.13003932 -0.27117893 7.9295542e-39
1.0576855 -0.073656857 -0.27854529 9.5869064e-39
1.0816363 -0.033382591 -0.28030482 9.3124929e-39
1.1132563 -0.034848291 -0.27976266 9.4968842e-39
1.176855 -0.027434774 -0.29827785 9.5887239e-39
1.0260801 -0.21447296 -0.22055745 1.0880903e-38
1.0276763 -0.17446581 -0.20947351 1.2722649e-38
1.0500971 -0.16011024 -0.21632749 8.1150245e-39
1.0451045 -0.12522148 -0.21646874 1.1616298e-38
1.0529298 -0.10577878 -0.23126106 5.8072597e-39
1.0519338 -0.079671107 -0.21774822 1.1524098e-38
1.0621494 -0.026725661 -0.22255145 6.0841955e-39
1.0230786 -0.21456659 -0.16792393 8.6685682e-39
1.0332778 -0.16683531 -0.16243604 9.589077e-39
1.0409143 -0.12257792 -0.16610426 1.1155318e-38
1.0548257 -0.10356033 -0.19129232 1.4477605e-38
1.0436617 -0.082264334 -0.16330433 1.2262029e-38
1.0550978 -0.078027293 -0.18611383 9.4957967e-39
1.0638363 -0.026951041 -0.1783784 4.4239553e-39
1.0202755 -0.20637217 -0.11824907 1.3002492e-38
1.0292962 -0.15953258 -0.11389408 1.2170556e-38
1.0375514 -0.1180099 -0.11606294 1.1247518e-38
1.0476849 -0.070084646 -0.12379412 9.5861931e-39
1.0494909 -0.026839331 -0.12788007 7.3735036e-39
1.0539255 -0.033497296 -0.12879109 5.8065352e-39
1.0159299 -0.20607769 -0.086289257 1.152736e-38
1.0198129 -0.17536707 -0.076049961 8.2987039e-39
1.0328096 -0.12931935 -0.067219578 1.1340435e-38
1.0463787 -0.069242492 -0.068738446 1.0786534e-38
1.0508265 -0.081918254 -0.057115674 1.5028972e-38
1.0481234 -0.02257105 -0.073543318 6.635933e-39
1.0526137 -0.032561891 -0.097164199 6.6355714e-39
1.0182468 -0.20200713 -0.049800619 1.125077e-38
1.0196722 -0.17146036 -0.022600381 1.0973462e-38
1.0286051 -0.12382167 -0.020605756 1.0787623e-38
1.0389503 -0.06720902 -0.026843362 1.0785452e-38
1.0456498 -0.027967665 -0.024742778 1.2260587e-38
1.0525837 -0.003963545 -0.013018912 9.9553428e-39
1.0125927 -0.17875731 0.024545938 1.1896503e-38
1.0282917 -0.12059311 0.030404342 1.1248605e-38
1.0390236 -0.062119585 0.025777098 9.9557001e-39
1.0461822 -0.024749 0.026380319 1.0878012e-38
1.0543897 -0.013050895 0.024123598 1.1801778e-38
1.0073671 -0.18064511 0.073103644 1.3648585e-38
1.0252789 -0.11613968 0.080631889 1.143336e-38
1.0347497 -0.060454547 0.076424494 9.5872763e-39
1.038348 -0.023215372 0.071655735 1.014009e-38
1.0586251 0.002864734 0.05682705 6.4508158e-39
1.0233592 -0.11211094 0.12937133 1.0050425e-38
1.0296395 -0.059167758 0.12586494 9.5869162e-39
1.0354216 -0.02034972 0.1276464 1.152302e-38
1.0222411 -0.11500545 0.17719889 7.654782e-39
1.0244374 -0.082365528 0.17761952 9.2210273e-39
1.0342911 -0.026397074 0.17338546 1.0602146e-38
1.0536571 -0.0081069767 0.1864064 9.5883399e-39
1.0388137 0.014691715 0.17833586 7.0990747e-39
1.0197246 -0.12584005 0.23371324 1.0973466e-38
1.0216571 -0.089063928 0.22816482 9.0366347e-39
1.0313209 -0.025760017 0.22071461 9.1259324e-39
1.0528299 -0.0036282092 0.20564148 6.3586006e-39
1.0407199 0.012893031 0.22550362 4.8849292e-39
1.062043 0.019840173 0.21774077 4.2406416e-39
1.0145342 -0.12231907 0.28239027 1.2079816e-38
1.0174496 -0.086342528 0.27793354 8.5760195e-39
1.025052 -0.023728726 0.28107142 1.0416674e-38
1.0303971 0.012566275 0.28175279 6.8188823e-39
1.0129685 -0.12131211 0.33128646 1.2172004e-38
1.0160317 -0.084923059 0.32726961 8.9455223e-39
1.0193872 -0.021347269 0.32836461 1.0969488e-38
1.0276861 0.016146194 0.32600796 5.4370268e-39
1.0107634 -0.12067909 0.37070665 9.1280918e-39
1.012921 -0.078478001 0.37529841 1.0051871e-38
1.0179421 -0.018280039 0.37126192 1.0417033e-38
0.99771029 0.031442981 0.3901279 2.7644172e-39
1.0282414 0.023288183 0.37620202 4.7008967e-39
1.0557016 0.034394216 0.36803862 3.1339213e-39
1.0161934 -0.017889533 0.40012521 6.6391854e-39
1.0169042 0.01517403 0.40076381 6.4537123e-39
4.1055412 1.2225345 -2.7014189 8.4787301e-39
4.0948844 1.3955328 -2.71487 1.6313558e-38
4.5036578 1.0926276 -2.6752224 8.385817e-39
4.4700456 1.1307212 -2.6619563 7.2783919e-39
3.9642627 1.2307212 -2.6519599 7.5582102e-39
4.0044303 1.3891282 -2.6932216 1.2441342e-38
4.0669518 1.3562821 -2.6632395 9.2152162e-39
4.4582672 1.0733747 -2.6160371 8.6620508e-39
4.6436868 1.0880322 -2.6082344 9.5836456e-39
4.4953208 1.1392823 -2.6421919 1.2716852e-38
4.5437231 1.1224828 -2.6310172 1.4193783e-38
4.5931759 1.1054057 -2.6197047 1.2626457e-38
3.9542222 1.1996192 -2.612258 8.3872548e-39
4.0526543 1.2059644 -2.6227961 8.1095931e-39
4.1284704 1.2107034 -2.6264517 9.1241051e-39
4.0941591 1.2791101 -2.6386008 1.4192335e-38
3.9049394 1.3084247 -2.6113315 1.5206489e-38
4.5151458 0.98855728 -2.5682988 8.1103147e-39
4.4454594 1.0319753 -2.5716419 6.1731331e-39
4.487865 1.0117732 -2.5908179 7.9259235e-39
4.5820484 1.0231273 -2.5710855 1.4561845e-38
4.463798 1.0683643 -2.5848446 1.5023544e-38
4.5112987 1.0510192 -2.5731554 1.2625736e-38
3.8630178 1.2278314 -2.5731668 8.2943431e-39
3.9085906 1.2266161 -2.5592575 1.1150966e-38
3.9750907 1.2076881 -2.594666 7.6493366e-39
4.0114422 1.2211283 -2.5860424 9.2144973e-39
3.8578303 1.2625087 -2.5938611 7.4642237e-39
3.921911 1.2736468 -2.5720687 1.3179263e-38
4.4726677 1.0091627 -2.549439 8.6609704e-39
4.6688538 1.9290794 -2.3633132 5.162221e-39
4.676116 1.8996049 -2.3288894 6.1763701e-39
4.4628882 1.9308013 -2.3438683 5.0714645e-39
4.5386252 1.9026088 -2.3064747 5.9919845e-39
4.6741271 1.9318856 -2.3313994 7.3752692e-39
4.6046004 1.9659373 -2.3065238 1.1156026e-38
4.6754241 1.9992534 -2.3045049 1.4934958e-38
4.430243 1.8841165 -2.292212 5.0700254e-39
4.6391764 1.9498338 -2.2509174 5.7146731e-39
4.6813908 1.9024109 -2.2969756 8.9400754e-39
4.6775022 1.5682445 -2.2287951 4.9778269e-39
3.7704082 1.8461508 -2.2060976 8.572718e-39
4.5546794 1.8139248 -2.2371092 7.6497051e-39
3.8973763 1.8582336 -2.2383499 9.3092111e-39
4.1385322 1.8957368 -2.200726 9.3110215e-39
4.6002059 1.8995942 -2.2136354 6.5426359e-39
4.0716243 1.9057535 -2.2032077 9.4035885e-39
4.5501418 1.9735531 -2.2182851 1.1337883e-38
4.6149988 1.9714698 -2.2436056 5.3458934e-39
4.6110783 2.0351114 -2.2485542 9.4010564e-39
4.5752931 1.5320961 -2.1545873 7.0057679e-39
4.6584253 1.5647069 -2.1585345 1.1153124e-38
4.3879361 1.6667515 -2.1525559 1.5576715e-38
4.4854565 1.6619719 -2.1913042 1.6960369e-38
4.525723 1.664781 -2.1773462 1.5577068e-38
4.4833622 1.7083396 -2.1644516 5.4362883e-39
4.5442171 1.7030302 -2.1880231 1.5946576e-38
4.5959539 1.7113888 -2.162951 9.402134e-39
4.5405407 1.763063 -2.1918614 7.9277241e-39
3.6697927 1.831718 -2.1568387 8.6641962e-39
3.7909167 1.8298274 -2.185627 9.4928792e-39
3.8578444 1.8098419 -2.185873 7.8362474e-39
3.9779611 1.8078749 -2.1667166 5.8079463e-39
4.0723343 1.8334343 -2.1657634 7.8366005e-39
4.1263723 1.8012282 -2.1856446 5.4398869e-39
4.1900158 1.8024426 -2.1512933 9.5890504e-39
4.5161791 1.8295199 -2.1902227 1.317783e-38
3.7113309 1.89478 -2.1693296 5.8072219e-39
4.1624622 1.8781585 -2.1783922 8.4805448e-39
4.1618447 1.9671639 -2.1566122 1.2168367e-38
5.1335764 -2.1970999 -2.1099443 6.359695e-39
4.3985896 1.4928426 -2.1414366 1.4655837e-38
4.3227639 1.5036608 -2.1022811 6.9124932e-39
4.5343094 1.5491683 -2.109797 1.1615912e-38
4.3748603 1.5724792 -2.1389565 9.1241023e-39
4.421793 1.5936368 -2.1151624 1.050379e-38
4.6154737 1.5816145 -2.1127017 6.5408268e-39
4.7011423 1.5832455 -2.1292405 7.7411735e-39
4.5923157 1.6193231 -2.1072927 9.1259072e-39
4.699573 1.6152345 -2.115695 8.941523e-39
4.3310447 1.6723043 -2.1301959 1.318143e-38
4.4041104 1.6554402 -2.1283455 5.9919845e-39
4.4876184 1.6510357 -2.1309705 5.252616e-39
4.3660212 1.7167875 -2.1481833 9.2177371e-39
3.657162 1.7983335 -2.1061091 5.346608e-39
3.7073686 1.7854213 -2.1071372 6.7288194e-39
3.7852304 1.7860004 -2.1358471 6.8217353e-39
3.8528132 1.7935203 -2.124382 6.0827368e-39
4.0400767 1.7886482 -2.147222 5.7168269e-39
4.0629392 1.7710387 -2.1252017 7.3759951e-39
3.655591 1.8238388 -2.1080923 6.0841689e-39
3.7251272 1.8485216 -2.1011596 9.4943184e-39
3.8055134 1.8102721 -2.1051087 7.7451308e-39
4.098917 1.8078783 -2.1240754 6.6398804e-39
3.7047124 1.8641578 -2.1212797 8.3897715e-39
3.765485 1.8976592 -2.1245923 9.3095614e-39
3.8677073 1.8706027 -2.1103415 9.9585616e-39
3.9472067 1.8844677 -2.1465631 1.0329516e-38
4.0073218 1.8586916 -2.1107874 1.4385028e-38
4.2309885 1.8824788 -2.114356 1.1153139e-38
3.9491534 1.9279921 -2.1226473 5.0703869e-39
4.0295343 1.9059341 -2.1249895 7.3760063e-39
3.8318422 1.9617313 -2.1041961 1.2444228e-38
5.0495911 -2.3485165 -2.062803 1.5950198e-38
5.119688 -2.3458765 -2.058497 1.0881594e-38
4.9960041 -2.2025449 -2.054203 1.231676e-38
5.0646038 -2.214529 -2.0645039 1.1218336e-38
5.1118088 -2.2172477 -2.0667214 1.0756277e-38
4.399816 1.4966331 -2.0833244 9.4014095e-39
4.3696647 1.5212011 -2.0883746 7.8304754e-39
4.3307209 1.5851179 -2.0502481 6.6337469e-39
4.3789463 1.5535861 -2.0602889 1.0324452e-38
4.4831648 1.5658956 -2.080359 7.926648e-39
4.5691876 1.5656375 -2.0846896 6.2682028e-39
4.4763904 1.6135415 -2.0742505 6.4471935e-39
4.3243394 1.683273 -2.0997801 8.5709398e-39
4.5460739 1.6848886 -2.0551977 5.3448144e-39
4.308804 1.7074679 -2.0647111 8.2057628e-39
4.3703117 1.734809 -2.0594549 6.3607614e-39
4.4747648 1.7494423 -2.0680609 1.069324e-38
3.6984265 1.8073471 -2.0847411 8.2965039e-39
3.7738163 1.8343229 -2.0935416 7.4692809e-39
4.0301313 1.8416492 -2.0889201 4.7941643e-39
4.0566545 1.816492 -2.0774159 8.1135629e-39
4.122858 1.8002728 -2.0928402 1.0692514e-38
4.1976948 1.8364333 -2.0962906 5.2544166e-39
3.7652102 1.8973852 -2.0963454 7.2819932e-39
3.8367715 1.8817259 -2.0979757 1.0695401e-38
3.8114483 1.9091526 -2.0897717 8.2968724e-39
4.9764156 -2.2552764 -2.0416658 1.6044549e-38
5.0231066 -2.274056 -2.0426407 9.3845168e-39
5.069819 -2.2931182 -2.0434473 4.8802461e-39
5.1398926 -2.2736561 -2.039995 2.7691031e-39
4.9745007 -2.2240148 -2.0436647 1.277666e-38
4.3599973 1.5770299 -2.0395887 8.7560345e-39
4.2293563 1.628087 -2.0259452 1.1154584e-38
4.4403677 1.6410718 -2.044353 6.2617162e-39
4.5284119 1.6300822 -2.0432596 6.3553594e-39
4.5806079 1.6193185 -2.0364306 9.1251953e-39
4.2596946 1.6564753 -2.0095806 4.0555077e-39
4.3407393 1.6613034 -2.0093203 5.3448116e-39
4.3993812 1.6551994 -2.0305247 5.8061429e-39
4.2438264 1.6198043 -1.9998544 7.4602594e-39
