# .PCD v0.7 - Point Cloud Data file format
VERSION 0.7
FIELDS x y z rgb
SIZE 4 4 4 4
TYPE F F F F
COUNT 1 1 1 1
WIDTH 303
HEIGHT 1
VIEWPOINT 0 0 0 1 0 0 0
POINTS 303
DATA ascii
5.2876415 0.59028018 -0.1514639 9.5912112e-39
5.3894715 0.63216811 -0.17637792 6.4551248e-39
5.3646517 0.54361761 -0.10627225 5.7146731e-39
5.4130969 0.54672271 -0.1023073 4.9789115e-39
5.220644 0.55266798 -0.10066679 6.4522409e-39
5.2714567 0.55852324 -0.1219127 9.5876084e-39
5.3804965 0.57418478 -0.12980583 9.8645484e-39
1.3727282 -0.51493597 -0.073274679 6.1770946e-39
1.3873178 -0.48659039 -0.068079658 1.0511742e-38
1.4062085 -0.46369159 -0.067402542 1.2262017e-38
1.4179087 -0.43548128 -0.055645041 1.1430086e-38
5.5487151 0.44884369 -0.068386346 4.887076e-39
5.3071165 0.46593335 -0.061478049 6.0848962e-39
5.4990773 0.49544859 -0.056811791 6.2700105e-39
5.3556399 0.52253795 -0.071875602 7.0994096e-39
5.4263883 0.54628801 -0.074020483 6.8228213e-39
5.5244193 0.50502396 -0.088058025 5.9944998e-39
5.5703278 0.53382885 -0.066849865 7.4681935e-39
5.2870517 0.57229584 -0.092021324 7.3770755e-39
5.385283 0.5724647 -0.073747188 9.8641953e-39
5.479682 0.58146328 -0.06936834 9.9578259e-39
5.4729934 0.61033225 -0.066664815 1.1156376e-38
1.3431143 -0.51511157 -0.0040390296 1.2817003e-38
1.3586469 -0.51038712 -0.036174178 1.0789417e-38
1.3786211 -0.48167309 -0.028378436 1.1156036e-38
1.4019089 -0.46472317 -0.035572898 1.0508857e-38
1.3989618 -0.44317645 -0.019974362 1.16152e-38
1.4143187 -0.42420495 -0.024516353 1.1418922e-38
1.4563954 -0.42087051 -0.0059980154 1.5398837e-38
5.6055799 0.30247349 -0.0025978386 1.2075093e-38
5.3209047 0.39629772 -0.030464262 6.0852549e-39
5.4213862 0.37662068 -0.019998461 6.5451582e-39
5.5802078 0.36130968 -0.023334056 5.5310035e-39
5.180285 0.43623349 -0.0090794861 1.1987219e-38
5.2066607 0.42678985 -0.038511664 7.2827205e-39
5.2579308 0.4170517 -0.01259318 9.8627534e-39
5.6713834 0.40028808 -0.048043996 1.2352035e-38
5.1957259 0.46602401 -0.032014877 9.6819719e-39
5.4188313 0.4842422 -0.027211528 9.7745234e-39
5.5066381 0.4650051 -0.033059102 8.0213645e-39
5.2662578 0.5009625 -0.027132183 6.2721685e-39
5.3380847 0.53674877 -0.022126824 6.0852591e-39
5.3626451 0.53427154 -0.016442996 8.2979514e-39
5.4018893 0.51075435 -0.021836024 8.1150021e-39
5.2948828 0.5831874 -0.033912282 1.6227136e-38
5.3082843 0.58752304 -0.013543159 5.8072373e-39
5.3674932 0.56786507 -0.01740256 1.1156379e-38
5.4602008 0.55279684 -0.049845964 9.6798069e-39
5.5185008 0.58439791 -0.040742736 8.943318e-39
5.5844507 0.56367105 -0.046711307 9.9574699e-39
5.3152137 0.61555636 -0.0090667307 1.0879789e-38
5.4058981 0.6015414 -0.040934831 1.6691365e-38
1.3339716 -0.51001531 0.046933502 9.7752661e-39
1.3462298 -0.49091318 0.012297143 9.8667429e-39
1.3673989 -0.46954784 0.019672858 1.1338621e-38
1.3832773 -0.43454298 0.025225773 1.1336816e-38
1.4032999 -0.4279609 0.006983906 1.1247505e-38
5.3395319 0.24447849 0.049075283 7.6515002e-39
5.3991709 0.22007331 0.045404948 6.1763757e-39
5.6385283 0.21081308 0.044439882 1.3918286e-38
5.4264736 0.28341651 0.024528805 6.2682112e-39
5.5337825 0.25751567 0.020872153 1.0879426e-38
5.6632996 0.27464986 0.023807853 6.9132191e-39
5.4787083 0.32114658 0.022590369 8.7574918e-39
5.5021782 0.31269673 0.028929628 7.8351726e-39
5.5822926 0.34761947 0.03298489 1.0047868e-38
5.5418262 0.3556681 0.020930618 9.4025011e-39
5.6025681 0.39099154 0.011528581 8.9415201e-39
5.6936288 0.39735496 0.043400019 1.0875831e-38
5.7146626 0.38780707 0.037231721 9.4014095e-39
5.19276 0.43620554 0.018614858 1.1523719e-38
5.2473006 0.44054553 0.047496527 5.8072401e-39
5.527957 0.44161722 0.034439415 1.1800304e-38
5.685339 0.42813548 0.017482489 7.4645978e-39
5.7531857 0.43287048 0.049382299 6.9114212e-39
5.8175421 0.44164851 0.043698944 7.6500583e-39
5.1686072 0.47873801 0.016241282 8.3901484e-39
5.2652888 0.49158806 0.020734925 7.5611122e-39
5.3320603 0.47019094 0.03006782 4.7008897e-39
5.3864603 0.47842902 0.0016263919 1.06025e-38
5.6628466 0.47062066 0.049370326 8.0213645e-39
5.212719 0.52390736 0.0092840735 5.0711156e-39
5.3664656 0.53415453 0.037765555 1.2445316e-38
5.374115 0.57874763 0.016666228 9.5879742e-39
5.2984333 0.63678139 0.0043090777 1.1340414e-38
1.3193494 -0.5137018 0.071430773 1.0235524e-38
1.3390039 -0.47423539 0.067490958 1.06025e-38
1.359241 -0.47532114 0.057631586 7.9299018e-39
1.367757 -0.42028213 0.072969072 1.3552036e-38
1.4154639 -0.41501772 0.087398067 1.3279415e-38
5.3972311 0.1625292 0.065997519 5.89907e-39
5.294858 0.21302623 0.086833276 1.17063e-38
5.3118348 0.2557466 0.092700042 1.3551656e-38
5.3711023 0.27842802 0.052781109 9.5868896e-39
5.4123688 0.3050155 0.085535683 9.3135453e-39
5.4765186 0.33160558 0.080395274 1.1708109e-38
5.5720835 0.34636927 0.062064685 1.1521553e-38
5.5436459 0.3680245 0.067942709 1.5116831e-38
5.5934649 0.37665328 0.095489778 5.6242781e-39
5.628561 0.38003901 0.066455878 1.0600669e-38
5.6445818 0.43602857 0.079807013 7.8355411e-39
5.6779084 0.42823839 0.072894134 5.5324412e-39
5.2753277 0.47089145 0.052467555 1.2354556e-38
5.462131 0.48238152 0.060179729 9.1266331e-39
5.7824697 0.4886815 0.085316658 1.1891419e-38
5.4857855 0.52245891 0.061912745 9.7712808e-39
1.2872033 -0.5056653 0.1368394 9.8663841e-39
1.3087364 -0.51200628 0.13055304 7.7469637e-39
1.2868139 -0.49832872 0.14825283 9.682353e-39
1.3122883 -0.47480717 0.11798689 1.1340067e-38
1.3356028 -0.42399871 0.1203344 1.1890717e-38
1.3748869 -0.4147183 0.11699129 1.4108095e-38
1.4185863 -0.41310245 0.12120685 1.1528056e-38
5.5330968 0.28847918 0.14642796 1.1615915e-38
5.3575697 0.30044457 0.11310033 8.1117595e-39
5.5269551 0.3418875 0.11979786 1.0232615e-38
5.6309209 0.32038659 0.14740112 1.3181793e-38
5.5995889 0.38587883 0.1019139 6.3614901e-39
5.6319971 0.35718107 0.12887487 1.3459462e-38
5.7018776 0.41544011 0.10088746 1.1616268e-38
1.2738552 -0.50661212 0.17708693 6.364025e-39
1.2777462 -0.49419788 0.18256989 1.1158565e-38
1.3045573 -0.46312094 0.16642377 1.0694694e-38
1.3176827 -0.4206588 0.17045102 1.2536805e-38
1.2353866 -0.50581974 0.23796955 7.7455245e-39
1.2550933 -0.50496805 0.22588283 1.1711016e-38
1.2435757 -0.49249092 0.2268353 9.681274e-39
1.2693869 -0.46747127 0.21527821 9.8642205e-39
1.2803913 -0.43018904 0.23160909 1.244389e-38
1.3273878 -0.41594374 0.21358071 1.3093223e-38
1.2204592 -0.3801184 0.24905348 1.7699762e-38
1.2800345 -0.38858247 0.23897505 1.4282387e-38
1.3117502 -0.39495659 0.21612984 1.4659111e-38
1.2314047 -0.50934321 0.26931885 7.9306332e-39
1.2311285 -0.47478831 0.27898359 1.1524465e-38
1.2439382 -0.41912079 0.29030102 1.4011581e-38
1.2691193 -0.42023006 0.27545786 1.3181456e-38
1.2282171 -0.37920517 0.28826937 1.5391981e-38
1.2903839 -0.38639846 0.25706723 2.0187962e-38
1.1953408 -0.50947332 0.34737107 8.1135812e-39
1.2093277 -0.50797665 0.31333363 1.0142609e-38
1.1980088 -0.49793127 0.32534236 1.0327729e-38
1.2122587 -0.47156686 0.33348244 1.2263112e-38
1.2340804 -0.41997373 0.33150545 1.3919745e-38
1.261686 -0.41321883 0.31731862 1.2997422e-38
1.2383635 -0.39477631 0.34542844 1.3367647e-38
1.1824149 -0.50693375 0.35879463 1.6320075e-38
1.1815332 -0.48582891 0.37661001 1.2171282e-38
1.2022543 -0.47300982 0.36726794 1.0419199e-38
1.2155502 -0.42475227 0.38622677 1.3735351e-38
1.2203989 -0.39666411 0.38355759 1.6779247e-38
1.1420445 -0.5034852 0.44492736 1.6871449e-38
1.1511319 -0.5005247 0.4184162 1.3185794e-38
1.1674764 -0.47612995 0.42597383 1.2540066e-38
1.1900936 -0.427154 0.43479288 1.3734995e-38
1.2107646 -0.40959477 0.42226106 1.4196686e-38
1.2169222 -0.39861977 0.42746353 1.3734624e-38
1.1347116 -0.50261986 0.45899412 1.3554569e-38
1.1423702 -0.48271677 0.47338867 1.1987619e-38
1.1562501 -0.47368181 0.46535826 1.2170926e-38
1.1710668 -0.4240371 0.4821946 1.4104499e-38
1.2108538 -0.40462172 0.46115172 1.1064566e-38
1.1574175 -0.3832083 0.47797918 1.8069262e-38
1.2096276 -0.39570984 0.46831334 1.1891799e-38
1.1207633 -0.4799315 0.51890111 1.1157854e-38
1.1412078 -0.42460635 0.53669339 1.3551324e-38
1.1639702 -0.41319528 0.51143408 1.419525e-38
1.1225446 -0.38117823 0.51858521 1.7425338e-38
1.1554866 -0.39671621 0.52678442 1.1522657e-38
1.0927074 -0.48504642 0.57503462 1.152736e-38
1.1094801 -0.47649366 0.55669534 1.373861e-38
1.1209235 -0.42427725 0.57821864 1.3366934e-38
1.1504819 -0.41159794 0.55511862 1.0692901e-38
1.1383337 -0.39411187 0.57048643 1.2629364e-38
1.1525038 -0.38460061 0.59979087 1.7240586e-38
1.0711647 -0.48013723 0.6271835 1.2080894e-38
1.0960565 -0.42233172 0.6306358 1.3277981e-38
1.1114198 -0.41125289 0.61381322 1.3644603e-38
1.1302187 -0.39428854 0.6177783 1.3919741e-38
1.1506211 -0.38897198 0.6130659 1.1336454e-38
1.0393853 -0.49311 0.69241941 1.4385422e-38
1.0542504 -0.47478062 0.68432426 1.2725905e-38
1.0857944 -0.42400894 0.66153312 1.3736082e-38
1.1034079 -0.40686479 0.66255951 1.3183625e-38
1.1560942 -0.40158129 0.66475874 4.9756661e-39
1.1247201 -0.39614677 0.65600747 1.1707037e-38
1.0336514 -0.50035274 0.72758108 9.3135705e-39
1.0338219 -0.47469264 0.73121393 1.2818819e-38
1.050867 -0.45684949 0.72937131 9.4983247e-39
1.0696557 -0.41954815 0.71544492 1.4105222e-38
1.0890269 -0.39314872 0.70728278 1.5486708e-38
0.99616551 -0.4941023 0.79686666 5.6257341e-39
1.013773 -0.47251692 0.77621377 1.0697235e-38
1.0380913 -0.41946787 0.79078519 1.2538617e-38
1.0536935 -0.42395622 0.75072724 1.456584e-38
1.0688145 -0.39208177 0.75596535 1.050814e-38
0.97544909 -0.48930371 0.83245349 1.097164e-38
1.0113751 -0.45857194 0.80555373 1.0605035e-38
1.0189528 -0.42007309 0.82910496 1.2354946e-38
1.02941 -0.39655495 0.8245846 1.4012304e-38
0.94273323 -0.48540467 0.88591021 8.6660123e-39
0.96428621 -0.4842999 0.86243582 1.0420629e-38
0.97267139 -0.43032423 0.88006043 1.0693603e-38
1.0046747 -0.39835525 0.86866403 1.3558884e-38
0.94346893 -0.48164478 0.90553975 8.2118837e-39
0.96174705 -0.42332584 0.90956867 9.4028556e-39
4.914196 0.59089309 -0.16181841 6.1774491e-39
4.8487492 0.60568684 -0.15631357 4.8881522e-39
4.888042 0.58621585 -0.13624087 5.7168339e-39
4.922142 0.56490093 -0.11605826 5.9934222e-39
5.022594 0.55303907 -0.11592323 5.4402484e-39
4.7969985 0.63373154 -0.14916709 6.7313348e-39
4.870719 0.62024117 -0.12978318 7.5621814e-39
4.9151745 0.61996877 -0.10622111 9.5915741e-39
4.8225207 0.68519807 -0.12917903 8.9422194e-39
4.856185 0.66185224 -0.10546139 8.5738082e-39
4.8797803 0.73123437 -0.13626733 8.7578351e-39
4.8696241 0.78301167 -0.12073192 5.8994231e-39
4.9215803 0.76277596 -0.13277712 8.296857e-39
4.9566383 0.79285371 -0.10394445 1.2446382e-38
4.9230514 0.83529252 -0.12045005 1.2816248e-38
5.7168455 0.48973149 -0.064756848 5.6246383e-39
4.8035531 0.59639633 -0.091850258 7.6572665e-39
4.8711724 0.58170646 -0.097957946 8.6681731e-39
4.9265313 0.59988761 -0.058290701 8.2075621e-39
5.1094103 0.58936971 -0.086251676 1.1250026e-38
5.1653652 0.57187295 -0.095892698 8.2061089e-39
5.202364 0.59962153 -0.055591803 1.3373767e-38
4.7768669 0.62887883 -0.084334709 8.5745355e-39
4.8620114 0.61604309 -0.065409102 1.0142217e-38
4.9643097 0.63270861 -0.080031067 1.0972705e-38
5.0291023 0.616831 -0.071403474 8.8514937e-39
5.1104097 0.61530048 -0.06041804 1.3926218e-38
5.264163 0.61011809 -0.051016122 1.2450364e-38
4.7969232 0.6808098 -0.075378634 6.0852563e-39
4.8407297 0.69914931 -0.090368181 5.6231963e-39
4.8800306 0.6562174 -0.058549982 9.8656401e-39
4.9498143 0.68003392 -0.07172969 8.022089e-39
5.0647454 0.65977192 -0.052029282 6.2678525e-39
4.8594003 0.72667956 -0.098820835 8.2975871e-39
4.9230928 0.73964173 -0.070276953 1.2815162e-38
4.9974384 0.70069069 -0.055151921 1.2540387e-38
5.0721264 0.73775113 -0.065587431 1.2723692e-38
5.0167227 0.77870566 -0.083002597 1.0970177e-38
5.6026206 0.32093617 -0.0011955304 7.1916067e-39
5.6201487 0.4747225 -0.0037321849 1.2354206e-38
5.6739006 0.45273322 -0.039659124 6.4522409e-39
5.2152653 0.54341835 -0.010938386 5.9930607e-39
4.9661498 0.59216481 -0.048185568 1.4017692e-38
5.0695825 0.57923895 -0.027541976 8.1146462e-39
5.1095133 0.56970191 -0.0033150716 8.6667381e-39
4.9585667 0.64198852 -0.03849588 9.5876084e-39
5.0363026 0.60061961 -0.022482138 6.0852633e-39
5.0814018 0.63336337 -0.01776443 1.2908093e-38
5.2035084 0.62764251 -0.033216745 6.2692972e-39
5.1433034 0.69719684 -0.034965735 1.1616991e-38
5.2332258 0.68315893 -0.013217549 1.2172336e-38
5.2520399 0.66116601 -0.02854827 1.2815534e-38
5.427187 0.22849566 0.044683665 6.0852591e-39
5.5251842 0.3420186 0.034040231 9.954949e-39
5.5598612 0.3474468 0.0042821364 6.2700105e-39
5.6365047 0.38272834 0.025095601 8.8496861e-39
5.7165003 0.4191252 0.046511788 6.8192228e-39
5.714797 0.46837127 0.0087392526 1.2631872e-38
5.1932669 0.13531321 0.070053011 6.3596838e-39
5.2784448 0.11527747 0.085378945 5.8983441e-39
5.3217201 0.12323199 0.087165982 6.0841801e-39
5.4104428 0.11754142 0.099444412 6.6355546e-39
5.1361818 0.17335893 0.088858694 8.10887e-39
5.1708441 0.1977208 0.065062732 7.559306e-39
5.2648296 0.19336413 0.081852041 8.2943445e-39
5.3145022 0.18658665 0.069231667 6.3600453e-39
5.2239118 0.24252895 0.072965235 1.1613749e-38
5.3405137 0.28459647 0.068618141 1.0233707e-38
5.4254932 0.32105935 0.089797556 1.0049675e-38
5.4916902 0.33671266 0.063527606 1.3457664e-38
5.5969157 0.3754307 0.070279859 1.244171e-38
5.6712036 0.42757747 0.079542838 5.3469766e-39
5.651866 0.47332925 0.056942839 5.2540663e-39
5.7233162 0.45033503 0.052150149 1.0418451e-38
5.4550509 0.080249578 0.1409708 8.5741796e-39
5.27703 0.11615828 0.11903942 8.2939871e-39
5.328577 0.10032799 0.14286104 7.2809198e-39
5.2781439 0.16339633 0.12111557 7.2751451e-39
5.3918042 0.15966573 0.12175181 8.6602417e-39
5.2150564 0.24023911 0.10101375 6.632291e-39
5.2871199 0.22536744 0.13758543 5.9887419e-39
5.3287683 0.21082938 0.12944345 6.2627952e-39
5.3839173 0.24931043 0.13604829 5.5288525e-39
5.3152213 0.27361381 0.12020465 5.6224817e-39
5.3624296 0.27231577 0.13772908 5.899786e-39
5.4809651 0.29851669 0.14772786 1.2353477e-38
5.4305758 0.31201029 0.11715719 5.5306532e-39
5.4969645 0.33203819 0.12339713 8.4819895e-39
5.5137486 0.083808519 0.1723379 1.3367632e-38
5.3716569 0.12970281 0.17641321 1.0234067e-38
5.4102168 0.10238271 0.1737372 1.1616994e-38
5.477427 0.13772386 0.1576664 7.3691568e-39
5.5204659 0.11457381 0.17789544 1.1985786e-38
5.3794374 0.15867797 0.18038991 6.1785379e-39
5.4451852 0.17440936 0.15569438 6.4461103e-39
5.5091014 0.17483503 0.18811883 4.978564e-39
5.4041882 0.20187038 0.15966417 4.8867159e-39
