# .PCD v0.7 - Point Cloud Data file format
VERSION 0.7
FIELDS x y z rgb
SIZE 4 4 4 4
TYPE F F F F
COUNT 1 1 1 1
WIDTH 549
HEIGHT 1
VIEWPOINT 0 0 0 1 0 0 0
POINTS 549
DATA ascii
4.5223937 0.9381206 -3.1272783 8.019917e-39
4.5091839 0.90469074 -3.0788624 6.0823766e-39
4.4967899 0.87174523 -3.0313504 7.2823519e-39
4.5049539 0.84374225 -2.9970446 7.740812e-39
4.4423347 0.86107862 -2.9622469 1.1149524e-38
4.5305099 0.88380265 -2.9821644 1.3271824e-38
4.5810061 0.86529827 -2.9734263 9.217028e-39
4.4810681 0.90198493 -2.9908037 1.3086711e-38
4.4823742 0.74777889 -2.9005523 7.9241242e-39
4.4866095 0.79511309 -2.9268994 9.4003361e-39
4.4710503 0.83816075 -2.941155 1.4838428e-38
4.4407191 0.69452393 -2.8347836 7.9248501e-39
4.4188728 0.66142738 -2.7836599 1.0137178e-38
4.3367081 1.7444712 -2.714751 7.930608e-39
4.325623 1.7092366 -2.6709876 6.0863423e-39
4.6625104 1.5660275 -2.6126676 5.8990644e-39
4.7789421 1.5597812 -2.6161933 5.7153948e-39
4.8268552 1.5786867 -2.6075478 8.1113867e-39
4.31602 1.6441853 -2.6243463 8.5759802e-39
4.4706821 1.7127334 -2.6094747 1.226237e-38
4.4890242 1.7524476 -2.6235411 1.4110256e-38
4.9226499 0.94517207 -2.5633311 5.9927075e-39
4.9345055 0.99607348 -2.57476 6.4544017e-39
4.9491057 1.0508242 -2.5540667 6.4518682e-39
4.4196405 1.5344523 -2.5614817 5.4395338e-39
4.7357984 1.5119983 -2.5900474 6.5444338e-39
4.2505155 1.5867409 -2.5510771 8.6656521e-39
4.5476942 1.5535805 -2.5915439 4.9789087e-39
4.575161 1.5652446 -2.5716004 6.9135848e-39
4.7136011 1.6332262 -2.5577831 1.429103e-38
3.9155107 1.722152 -2.5825684 8.9389796e-39
4.3072386 1.7031465 -2.5618439 1.0884129e-38
4.3839169 1.7059312 -2.5999231 8.6667409e-39
4.8293357 0.93022239 -2.5097594 5.4398939e-39
4.8509703 0.96765769 -2.5238934 7.9288242e-39
4.9384327 0.96937197 -2.5229855 4.2413535e-39
4.9513235 0.95784354 -2.5107691 5.7164808e-39
4.9488435 1.0024865 -2.5484881 5.070024e-39
4.9288082 1.0808036 -2.514164 5.1633e-39
4.6775126 1.4293821 -2.519773 9.8641981e-39
4.6754351 1.4918962 -2.5250201 6.3611145e-39
4.4322886 1.5414364 -2.5015068 8.6645829e-39
4.6202288 1.519313 -2.5346117 8.387982e-39
4.720376 1.5413336 -2.5184627 9.862382e-39
4.5180058 1.5760981 -2.5121839 1.0784006e-38
4.7626429 1.5889754 -2.5435281 6.7280992e-39
4.2913141 1.6351501 -2.5451064 6.4540416e-39
4.3586106 1.6394671 -2.5091553 8.9411474e-39
4.6668596 1.6102233 -2.5074515 5.4366527e-39
4.7615843 1.6208227 -2.5462008 6.1763729e-39
3.7135849 1.6755717 -2.5094464 8.3514446e-40
3.8382473 1.6705459 -2.5036993 8.0191911e-39
4.2762675 1.6901064 -2.512383 1.2633328e-38
4.6774879 1.6737072 -2.5281744 1.1245688e-38
3.8381991 1.7116251 -2.5389442 3.8711136e-39
4.4899149 1.7233533 -2.5182772 1.1245688e-38
4.7367721 1.7077216 -2.5429616 1.0785063e-38
4.2354622 1.7622646 -2.5020461 9.0337186e-39
4.2248311 1.8471216 -2.5401659 1.0970177e-38
4.8546872 0.97047806 -2.4917622 7.4660397e-39
4.8858757 1.0410485 -2.4563324 6.1763729e-39
4.9062123 1.0112698 -2.4957941 5.2544138e-39
4.9078317 1.0609807 -2.4854014 5.6239152e-39
4.9317126 1.1165497 -2.4858797 6.6373483e-39
4.7323918 1.2916957 -2.4659019 1.5116818e-38
4.7048726 1.376748 -2.4945731 1.3457664e-38
4.5411439 1.4472618 -2.4948668 7.9270081e-39
4.6143317 1.4388709 -2.4899149 4.9792661e-39
4.2931223 1.4858521 -2.4614034 5.8075932e-39
4.6375799 1.4798025 -2.4725394 1.0417356e-38
4.3326392 1.5224934 -2.4528189 7.9284486e-39
3.8303909 1.5845789 -2.4732282 9.216291e-39
4.2445755 1.5858412 -2.4834237 8.2983115e-39
4.2883997 1.580909 -2.4669657 7.3756224e-39
4.6174521 1.5524307 -2.4857826 8.2028761e-39
4.7229571 1.5756367 -2.4897342 4.885281e-39
4.7936687 1.5709565 -2.4888811 8.7571289e-39
3.8204663 1.6346419 -2.4745629 7.2809114e-39
4.2392936 1.6293458 -2.4544291 1.4567624e-38
4.28649 1.6383772 -2.4717889 1.1892499e-38
4.6141706 1.6159475 -2.492487 9.4025011e-39
4.6531358 1.6427858 -2.496295 7.8351754e-39
3.7073932 1.6727796 -2.4623222 2.8591225e-39
3.7704401 1.6779691 -2.4681933 4.702675e-39
3.8054471 1.6957868 -2.4599695 7.3759923e-39
3.8541973 1.6789074 -2.4687104 6.4522353e-39
4.3646131 1.6997123 -2.4903107 8.6652892e-39
3.9172931 1.7240292 -2.4928188 9.7709053e-39
4.2929697 1.7292058 -2.4733055 9.6805229e-39
3.915879 1.7514023 -2.495708 9.1266205e-39
3.9689558 1.7640771 -2.4945714 8.664922e-39
4.8853569 0.94575179 -2.4453344 5.5335244e-39
4.8356647 0.96798801 -2.4485054 3.6881769e-39
4.8632712 0.97225451 -2.4381981 3.0428075e-39
4.8382955 1.0029471 -2.4192286 8.1103147e-39
4.8634434 1.0038713 -2.4418468 5.253695e-39
4.8664775 1.0707295 -2.4176109 5.715392e-39
4.8889251 1.1082209 -2.4319823 7.4685439e-39
4.9150591 1.1499314 -2.4150178 6.9124932e-39
4.7370696 1.2629011 -2.4318776 8.3829388e-39
4.543766 1.3338531 -2.4247856 5.6206796e-39
4.4556074 1.3733033 -2.4154589 6.4526025e-39
4.1862974 1.4820422 -2.4042273 5.0711044e-39
4.5357156 1.4897015 -2.4412365 1.3917196e-38
4.6127138 1.4884479 -2.406743 9.8616842e-39
3.9069247 1.5246953 -2.4010983 5.2544166e-39
4.2200289 1.524096 -2.4259038 5.8079435e-39
4.2961855 1.5485618 -2.4386032 7.1001425e-39
4.4449358 1.5484204 -2.4415326 1.0970193e-38
3.7490697 1.5781876 -2.4047835 7.37347e-39
3.8356619 1.5605341 -2.4136882 7.0068567e-39
4.2739067 1.5794069 -2.4429026 9.3110299e-39
4.2733979 1.629752 -2.4384532 5.3455403e-39
4.4201097 1.6319159 -2.4410365 1.1336088e-38
3.8632402 1.6700501 -2.4277074 9.310283e-39
4.16295 1.6989316 -2.4140935 6.6384273e-39
3.8095717 1.7254395 -2.4367015 2.3081193e-39
3.8813145 1.7346541 -2.415772 5.8983385e-39
3.859066 1.7508496 -2.4362361 2.6754599e-39
3.9257772 1.7850209 -2.4449604 7.6518561e-39
3.8396463 1.8235573 -2.4358449 1.1063092e-38
4.8222175 0.93422365 -2.3822045 5.8086666e-39
4.7788129 0.95521951 -2.3649745 3.5034255e-39
4.8061743 0.98394531 -2.3804257 4.423214e-39
4.8227277 1.0282004 -2.3930497 9.8616618e-39
4.8692651 1.0477856 -2.3525949 1.0505238e-38
4.8468833 1.068611 -2.37552 5.8072247e-39
4.8693419 1.1059707 -2.3897254 7.2823547e-39
4.9301181 1.1264629 -2.368717 6.8221025e-39
4.758091 1.2414727 -2.3559527 7.5585815e-39
4.4020433 1.3477305 -2.3633204 8.479463e-39
4.4004831 1.3779234 -2.3665075 1.2352761e-38
4.4374204 1.4221393 -2.3886786 1.5576361e-38
4.1751823 1.4793557 -2.3537302 7.2838037e-39
4.5017829 1.4782497 -2.3910587 6.4515361e-39
3.716747 1.5453483 -2.3643115 5.7146759e-39
3.7792275 1.5483074 -2.3683562 5.8086694e-39
3.8301952 1.5451999 -2.3648806 7.0061308e-39
3.8757617 1.5384578 -2.387105 5.9919817e-39
4.1885896 1.5125018 -2.3787174 8.5730936e-39
4.2045307 1.5474731 -2.3903642 8.6652892e-39
3.7486358 1.5875539 -2.3577898 8.9411446e-39
4.1707954 1.5618489 -2.3746324 7.8351726e-39
4.3204331 1.5694616 -2.3596802 8.8486014e-39
3.7949889 1.6372131 -2.3591471 9.3095768e-39
3.944416 1.6404479 -2.3751755 8.5752572e-39
4.0656452 1.6270994 -2.3565669 6.0863451e-39
4.1246514 1.6116064 -2.3781588 9.8688855e-39
4.1880884 1.6270034 -2.3602619 9.956028e-39
4.2795277 1.6096801 -2.3740702 9.3106558e-39
3.6857762 1.6710845 -2.3931341 6.7309774e-39
3.8521161 1.6925014 -2.3954079 7.3745504e-39
3.9580977 1.6891352 -2.3882811 8.6649333e-39
3.888299 1.7106965 -2.3864222 9.0340717e-39
4.708446 -2.5548975 -2.3269043 2.1244497e-39
4.7691669 -2.4701779 -2.3256586 2.9520468e-39
4.6983385 -2.4369309 -2.3262298 2.4917945e-39
4.8150759 0.93703651 -2.3300946 5.7175556e-39
4.7639713 0.97198057 -2.3128016 4.2395472e-39
4.8738666 0.95513642 -2.3084137 6.2696546e-39
4.783114 1.0226252 -2.3257079 1.1151326e-38
4.8047318 1.0005573 -2.3026996 3.0388376e-39
4.8495631 1.0722183 -2.3441341 5.1614993e-39
4.8647437 1.0805268 -2.3021119 7.0050602e-39
4.923038 1.1289891 -2.3158224 8.3890708e-39
4.9688358 1.1733588 -2.3402402 9.5858134e-39
4.4160795 1.20021 -2.3178034 5.988016e-39
4.3648286 1.2599928 -2.3029809 7.9259221e-39
4.3482523 1.3908153 -2.3124819 1.0509217e-38
4.451582 1.398626 -2.3257668 5.8068743e-39
4.1261292 1.4883066 -2.3151984 6.6380797e-39
4.1630907 1.4762658 -2.3030605 7.3752692e-39
3.7461705 1.5464575 -2.3366659 8.2968612e-39
4.2339697 1.5057082 -2.3111339 5.0693065e-39
4.0705862 1.5750303 -2.324923 7.9302549e-39
4.1058621 1.5629878 -2.3271005 9.4964946e-39
4.7252312 -2.6065223 -2.2662454 2.3077704e-39
4.6773562 -2.5834301 -2.2776074 2.4921617e-39
4.7739491 -2.5647736 -2.2569842 3.8693312e-39
4.7717547 -2.5012712 -2.2919991 2.1248099e-39
4.6788983 -2.4562423 -2.2829256 2.4921589e-39
4.7854204 0.98024833 -2.2828279 3.6860161e-39
4.8080792 0.97099197 -2.2818801 5.1643888e-39
4.87673 0.99037755 -2.2805288 5.6231963e-39
4.9221711 0.96938515 -2.2974031 6.360767e-39
4.8084188 1.0333457 -2.2890759 5.9919817e-39
4.8546638 1.0322316 -2.2759159 7.0972446e-39
4.947485 1.0263652 -2.2810125 8.9407943e-39
4.9477458 1.0744697 -2.2865641 1.1704498e-38
4.9368382 1.1196685 -2.2871337 7.189806e-39
4.3574858 1.2120636 -2.2936132 6.0823766e-39
4.3230095 1.3363476 -2.2944221 9.8631177e-39
4.3952017 1.3478492 -2.29496 3.3175923e-39
4.0964322 1.4773724 -2.2701859 9.2191818e-39
4.1040788 1.516748 -2.2972412 7.006135e-39
4.7285738 -2.5731175 -2.2355883 3.6852959e-39
4.752851 -2.5197353 -2.2320182 6.5390472e-39
4.6430368 -2.5562387 -2.1636398 1.2343424e-38
4.6814537 -2.5683069 -2.1724815 1.0126765e-38
4.7114787 -2.5582378 -2.1616671 9.5678277e-39
4.7698989 -2.5554273 -2.1712587 1.5207238e-38
4.7089286 -2.5275867 -2.1948469 1.4278805e-38
4.780303 -2.5297358 -2.1937306 1.3995722e-38
4.737042 -2.6013131 -2.1382468 1.5399553e-38
4.76087 -2.588378 -2.1325376 1.1330354e-38
4.7793183 -2.5442383 -2.1142445 1.3722385e-38
4.7910457 -2.6217029 -2.0604477 6.7327907e-39
4.7429452 -2.5987086 -2.0742478 1.4280257e-38
4.7654166 -2.578352 -2.0846517 1.4192361e-38
1.0477836 -0.28474629 -0.65253448 8.4827182e-39
1.0643694 -0.26867771 -0.6570406 1.5584674e-38
1.0739988 -0.22305308 -0.66485858 1.1984342e-38
1.0625191 -0.27146241 -0.61686748 9.8663827e-39
1.0474153 -0.21331364 -0.60101271 8.9458614e-39
1.0730438 -0.22359435 -0.61948967 1.0693247e-38
1.0759804 -0.19406375 -0.62861568 1.0691804e-38
1.0730996 -0.132201 -0.6205653 9.2188259e-39
1.0774844 -0.27832335 -0.57576591 7.4707341e-39
1.049706 -0.20751467 -0.55247152 8.2086621e-39
1.0870194 -0.22521691 -0.58196461 1.0969474e-38
1.0765004 -0.18602335 -0.58335572 1.1522287e-38
1.1005434 -0.18956859 -0.59905815 1.170558e-38
1.068336 -0.13209407 -0.56762457 1.0323377e-38
1.073647 -0.2722801 -0.5308094 9.8678233e-39
1.0798466 -0.22913548 -0.53486663 9.8649324e-39
1.0868796 -0.18816715 -0.52615625 1.1153146e-38
1.0653204 -0.11994384 -0.50301945 1.1614486e-38
1.0753665 -0.26650059 -0.48190334 9.9593e-39
1.0834728 -0.22565991 -0.48797834 1.0417024e-38
1.0726023 -0.18023479 -0.47726989 1.0969122e-38
1.1222497 -0.15682517 -0.45941263 1.6778879e-38
1.0653715 -0.11760654 -0.45170975 1.096876e-38
1.0731409 -0.26235312 -0.42917961 8.9444264e-39
1.0792563 -0.22357391 -0.43229038 1.1339708e-38
1.1514813 -0.21225876 -0.40603933 1.5585384e-38
1.0850154 -0.17650457 -0.42498219 1.1246065e-38
1.1049531 -0.15068015 -0.43733332 1.5673257e-38
1.0651605 -0.11345129 -0.40211573 1.0876202e-38
1.1352454 -0.083098471 -0.42033517 8.1168266e-39
1.1723224 -0.071744561 -0.428069 8.6685598e-39
1.2043076 -0.077194467 -0.43062133 8.761117e-39
1.0931951 -0.3212823 -0.36047357 7.8398753e-39
1.0779431 -0.25449267 -0.37051386 8.4848874e-39
1.1048366 -0.28364739 -0.38160348 1.0326629e-38
1.0815737 -0.21452546 -0.37729639 1.0602142e-38
1.1134715 -0.23074691 -0.37426105 1.2261654e-38
1.0808432 -0.16886908 -0.37584978 1.1153869e-38
1.0684956 -0.12209488 -0.36740443 7.8348265e-39
1.1057918 -0.14892466 -0.36932877 1.6781765e-38
1.0753678 -0.086785376 -0.37692881 9.3110369e-39
1.1214732 -0.07972499 -0.38493285 8.5767271e-39
1.0973144 -0.31762302 -0.31237748 9.0377025e-39
1.0882014 -0.27022055 -0.32537907 8.5763628e-39
1.0808514 -0.22357447 -0.33165407 1.0326278e-38
1.1098185 -0.21784897 -0.32319009 1.2538967e-38
1.0499504 -0.15999322 -0.30135632 9.9571392e-39
1.0864871 -0.1665765 -0.33816916 1.1154232e-38
1.077383 -0.13645534 -0.33393061 1.2721196e-38
1.1188107 -0.14022192 -0.32914135 1.6317906e-38
1.0772357 -0.084949329 -0.32399985 1.1338262e-38
1.0972247 -0.31054479 -0.25780147 9.8678205e-39
1.1001246 -0.28394938 -0.26086724 9.6816313e-39
1.0770824 -0.23467147 -0.27713436 1.0973453e-38
1.1109238 -0.21500678 -0.27179602 1.3368731e-38
1.0434401 -0.16881578 -0.28972486 2.7655214e-39
1.0866774 -0.17351849 -0.28253913 1.189216e-38
1.0705349 -0.12166835 -0.27680659 9.4025137e-39
1.1100719 -0.12275302 -0.25254667 1.5306645e-38
1.0455095 -0.054196462 -0.2516799 1.6591241e-38
1.0759137 -0.08094503 -0.27806377 1.0878004e-38
1.0451937 -0.045408987 -0.28111294 1.262142e-38
1.103144 -0.30757928 -0.21041039 7.5611291e-39
1.1005074 -0.28013778 -0.21199308 9.4050445e-39
1.0753522 -0.2329687 -0.23014846 9.1295422e-39
1.1077695 -0.21737202 -0.21807535 1.1523013e-38
1.0481485 -0.15590394 -0.22192708 1.0788345e-38
1.0857257 -0.17659117 -0.2318166 1.1800327e-38
1.0826421 -0.14433822 -0.2149094 1.1615936e-38
1.1135782 -0.12756057 -0.22125614 1.7423535e-38
1.1605699 -0.11606601 -0.2415693 1.8344772e-38
1.0431532 -0.055570766 -0.20885697 1.7424615e-38
1.0737261 -0.073983699 -0.22182411 1.2447135e-38
1.0987729 -0.30346 -0.16749087 1.2355299e-38
1.100255 -0.27619576 -0.16321748 9.3135691e-39
1.0741516 -0.22376069 -0.1823101 1.0143696e-38
1.1051637 -0.22795722 -0.16707607 1.1707767e-38
1.0753565 -0.18474273 -0.17791979 1.0787979e-38
1.1120981 -0.19656354 -0.16575155 1.1890365e-38
1.0488619 -0.14974824 -0.15238895 9.4979674e-39
1.087811 -0.14265288 -0.17653906 1.2629366e-38
1.1092632 -0.11741512 -0.15654179 1.4382884e-38
1.0780544 -0.074520625 -0.17721507 1.0969482e-38
1.0987922 -0.2718927 -0.1115635 1.0051498e-38
1.0688007 -0.22209051 -0.12961078 1.1158212e-38
1.105809 -0.225106 -0.11535527 1.1983994e-38
1.0491581 -0.15749004 -0.12412129 2.1215855e-39
1.0796093 -0.17611498 -0.13670617 1.2168034e-38
1.127072 -0.18423112 -0.12777859 1.1612693e-38
1.1747413 -0.16751043 -0.11985618 1.8160374e-38
1.0462968 -0.14598355 -0.10026999 9.4979716e-39
1.0891593 -0.13353142 -0.12601431 1.299779e-38
1.1575273 -0.10491425 -0.14293823 1.6504828e-38
1.0778092 -0.081069089 -0.12473824 1.0877285e-38
1.0651371 -0.049067795 -0.12760711 1.2076917e-38
1.0951583 -0.26737034 -0.060183086 9.497966e-39
1.0711682 -0.21667224 -0.080944449 1.0789431e-38
1.1044503 -0.22057898 -0.064393915 1.1707049e-38
1.0481069 -0.15848175 -0.085874461 1.2903843e-39
1.0770209 -0.17410323 -0.088666379 1.1985809e-38
1.1296384 -0.17748642 -0.070886105 1.4566191e-38
1.0479205 -0.13921022 -0.063450575 7.2852708e-39
1.0887876 -0.12741241 -0.080331072 1.3274737e-38
1.1638328 -0.10099367 -0.050246105 1.8897938e-38
1.0784187 -0.071628831 -0.081636101 1.1707411e-38
1.079271 -0.044146672 -0.066287324 8.5720468e-39
1.1080317 -0.02986287 -0.068424135 1.4561135e-38
1.0922682 -0.2611621 -0.013205396 1.0604675e-38
1.0740438 -0.21087228 -0.030596677 1.0420289e-38
1.1040829 -0.21683019 -0.016134292 1.2352425e-38
1.0770175 -0.16878149 -0.036663719 1.0878738e-38
1.1232944 -0.16877475 -0.01414934 1.3830793e-38
1.0872629 -0.12850985 -0.033833206 1.2537534e-38
1.1131619 -0.1003395 -0.033393357 1.5394867e-38
1.0783008 -0.069205754 -0.032668721 1.1891803e-38
1.1075408 -0.093337998 -0.0027972925 1.1246062e-38
1.0844009 -0.039067578 -0.0068738903 1.2629726e-38
1.098184 -0.25699729 0.037780911 1.0051144e-38
1.0711372 -0.21080482 0.015877459 1.0051867e-38
1.1067067 -0.21364504 0.034272954 1.2537176e-38
1.0765072 -0.17747404 0.017148254 1.1709221e-38
1.1104372 -0.17535827 0.0275956 1.2260225e-38
1.0834174 -0.12046162 0.021044903 1.2076557e-38
1.0827665 -0.087840952 0.020237239 9.3110355e-39
1.1654317 -0.085382968 0.048129726 1.8989414e-38
1.086216 -0.032752626 0.022779003 1.3551684e-38
1.09789 -0.25298578 0.088017218 1.0973458e-38
1.0678879 -0.20606737 0.067368008 1.0974181e-38
1.1064051 -0.20866369 0.08484897 1.1800689e-38
1.0755348 -0.17128778 0.067173757 1.143408e-38
1.1105275 -0.17067465 0.08326529 1.2536093e-38
1.0481223 -0.1294508 0.096014798 1.014478e-38
1.083608 -0.11751262 0.075301804 1.2907039e-38
1.0688341 -0.072700031 0.072720431 1.0509956e-38
1.1240755 -0.089423105 0.063025072 1.8712467e-38
1.1638337 -0.075895518 0.058901876 1.8713188e-38
1.0736994 -0.034466092 0.076616764 1.1892166e-38
1.0845721 -0.22627291 0.11989806 1.1158215e-38
1.1037949 -0.20591468 0.13449843 1.1523743e-38
1.073109 -0.18201765 0.11984656 1.1989063e-38
1.1112721 -0.16021776 0.13138087 1.1246791e-38
1.0492373 -0.12553261 0.11461198 1.1989131e-39
1.0818143 -0.12302689 0.11719952 1.2999238e-38
1.0695705 -0.070009634 0.12144256 1.0602509e-38
1.1119817 -0.080083862 0.11148749 1.1893599e-38
1.0769838 -0.031469885 0.11957192 1.1246436e-38
1.0984904 -0.2422142 0.1876028 9.8682002e-39
1.1035249 -0.20066714 0.18430933 1.1986528e-38
1.0751781 -0.17823528 0.16906214 1.0606127e-38
1.1119497 -0.16076548 0.17910309 1.1617375e-38
1.0730561 -0.12470187 0.16664419 9.9582252e-39
1.0788455 -0.081926569 0.16033578 1.1154962e-38
1.0759784 -0.028731503 0.1650286 1.1707777e-38
1.0974147 -0.23951368 0.23621036 1.0604319e-38
1.076686 -0.17295581 0.21805698 1.1067108e-38
1.1065693 -0.17662534 0.23234805 1.2907404e-38
1.0733371 -0.12000104 0.21561435 1.0327366e-38
1.0789983 -0.078044288 0.21273445 1.1062769e-38
1.0789733 -0.02024065 0.21674129 9.3110454e-39
1.0962951 -0.2377281 0.27537563 7.0083252e-39
1.0725892 -0.16830844 0.26895133 1.0882354e-38
1.1048367 -0.1726056 0.28284371 1.2170919e-38
1.0489631 -0.10576146 0.29435045 9.5905413e-39
1.0703166 -0.1171398 0.26857376 9.0359074e-39
1.0797082 -0.080744252 0.26130456 1.1617385e-38
1.0782661 -0.019359387 0.26649976 9.5883567e-39
1.0965141 -0.22771496 0.31271487 5.4395506e-39
1.1017946 -0.23111737 0.31653637 1.7338955e-38
1.0705117 -0.15961038 0.33264822 9.6845278e-39
1.1022136 -0.19000706 0.31460759 1.0235168e-38
1.0706844 -0.1148899 0.33050582 8.9444292e-39
1.1122993 -0.14215873 0.31326362 1.1431906e-38
1.0791988 -0.081378803 0.3210527 1.1619544e-38
1.1158707 -0.058386691 0.32219985 7.2783863e-39
1.0807694 -0.026193185 0.31296918 1.0141173e-38
1.0830898 0.011902552 0.33642381 3.3175909e-39
1.0545098 -0.10324001 0.37580165 4.243171e-39
1.0435592 -0.072797507 0.38233295 3.7803838e-39
1.0704002 -0.084659807 0.37556335 8.668934e-39
1.0802999 -0.023971112 0.35983744 9.9578609e-39
1.0916696 0.010691943 0.36045447 3.2250352e-39
1.1132903 0.017495312 0.35839766 3.1328381e-39
1.0513234 -0.10172128 0.41407958 3.3262524e-39
1.0503751 -0.093162924 0.41001263 2.5818336e-39
1.0861053 -0.024738222 0.40038139 1.2263115e-38
4.5469151 0.69687635 -2.9309354 8.9397083e-39
4.503819 0.7203992 -2.9092307 8.2950619e-39
4.03368 0.89856362 -2.9162178 8.5723621e-39
4.0917115 0.88651645 -2.9191802 8.3872576e-39
4.4936986 0.65739667 -2.8599508 8.6634885e-39
4.5086946 0.75544935 -2.8817282 1.4837352e-38
4.0837431 0.88703173 -2.8655806 7.7408176e-39
4.1021609 0.9220103 -2.8656025 1.4285257e-38
4.041048 0.99066591 -2.8693464 1.3916472e-38
4.0008545 1.006158 -2.8781617 1.4099418e-38
4.5162044 0.64194119 -2.8095341 9.7676753e-39
4.6425438 0.62717903 -2.8330979 1.3177833e-38
4.6190972 0.65549457 -2.8240833 1.2903044e-38
4.4969335 0.72360682 -2.8358784 1.3179631e-38
4.5665998 0.70774657 -2.8375888 1.2994165e-38
3.9036155 0.89167416 -2.8318064 9.0319011e-39
3.9738257 0.88416612 -2.8441682 8.9404285e-39
4.0125461 0.89622033 -2.8384979 7.741535e-39
3.8788767 0.92655933 -2.8207719 8.386896e-39
3.9325814 0.91529238 -2.8223424 7.9252004e-39
3.9943454 0.93417561 -2.8323472 1.1611221e-38
3.8692214 0.96548736 -2.8199756 8.3833045e-39
3.9224405 0.95465112 -2.8213606 1.3915749e-38
3.8979142 1.0020453 -2.8434567 1.465439e-38
4.241538 1.5236785 -2.5060244 7.193043e-39
4.0184369 1.5454526 -2.4603949 8.3004836e-39
4.0753822 1.541985 -2.4577136 6.0834584e-39
3.9243624 1.5871645 -2.4783721 1.0326255e-38
4.1678419 1.5527534 -2.4735847 5.7153948e-39
4.3051643 1.6121563 -2.4835839 5.4398897e-39
4.2279429 1.6693661 -2.4542289 5.069675e-39
4.6404185 1.2384713 -2.4211445 7.1829466e-39
4.5200005 1.3462577 -2.4027114 7.0036141e-39
4.7107716 1.4269941 -2.4062724 5.3458934e-39
4.1077995 1.4702084 -2.4020972 5.716471e-39
4.1610355 1.4624647 -2.4268632 5.6242809e-39
4.2015443 1.4795514 -2.4169388 6.4540416e-39
4.4720583 1.4803537 -2.4075408 5.4384421e-39
4.1292496 1.5076892 -2.4329944 6.3618418e-39
4.2173195 1.5155988 -2.4291501 8.1139231e-39
4.3220916 1.5295784 -2.4157722 1.2720462e-38
3.9580979 1.5760683 -2.403604 8.941523e-39
4.0316215 1.566148 -2.4390283 6.3604083e-39
3.5679445 1.6273624 -2.4078317 9.2626389e-40
4.0931258 1.637414 -2.4479222 1.1434785e-38
4.2992501 1.6112713 -2.4158032 9.124838e-39
4.1240759 1.666543 -2.4356141 8.1146462e-39
3.6248627 1.76143 -2.4009676 1.4794377e-39
3.7257183 1.8164872 -2.4337249 4.4246532e-39
4.58429 1.2228096 -2.3605263 5.6214013e-39
4.5264716 1.2584645 -2.3651447 1.5207579e-38
4.6969342 1.2590824 -2.3790076 7.3749133e-39
4.6176152 1.3147835 -2.3524902 6.7226944e-39
4.7002468 1.3268652 -2.3543634 7.8355439e-39
4.4426556 1.3501627 -2.3659439 5.7161206e-39
4.6469803 1.3727514 -2.372323 4.6997981e-39
4.7207565 1.3662351 -2.3679054 5.0693093e-39
4.3800516 1.4175069 -2.3563139 1.0048577e-38
4.2377253 1.5405986 -2.3782721 9.5872567e-39
4.2719145 1.5404526 -2.3619816 9.4017752e-39
4.3099751 1.5256678 -2.3773482 5.3455403e-39
3.4871645 1.5855224 -2.3846378 8.3478993e-40
3.895283 1.5754811 -2.372149 9.3124663e-39
3.5819478 1.634867 -2.3748856 6.1778064e-39
3.9940047 1.6211606 -2.3970399 1.1248946e-38
3.5485263 1.6942412 -2.3509202 1.6638289e-39
3.6122839 1.6766893 -2.3549664 6.3625705e-39
3.6527362 1.6980395 -2.3510935 8.6642102e-39
3.6314244 1.7389219 -2.3733935 2.7676499e-39
3.6648517 1.7306724 -2.361752 9.0347878e-39
3.741221 1.7310969 -2.372942 6.0838144e-39
3.7047071 1.7784323 -2.3889148 7.4681879e-39
4.4190493 1.1780213 -2.3028185 1.0876901e-38
4.5348573 1.1883361 -2.3119814 6.4525941e-39
4.3791251 1.2470212 -2.3366385 7.0054147e-39
4.5063462 1.2267067 -2.3242025 7.8337335e-39
4.326673 1.2717688 -2.3142676 6.913575e-39
4.4687939 1.2648684 -2.3160911 8.6613235e-39
4.609447 1.264099 -2.3425689 8.294706e-39
4.2926588 1.3158889 -2.3029268 9.8645526e-39
4.4761739 1.3295522 -2.3208737 8.3861744e-39
4.3093209 1.3635787 -2.3162997 9.9571e-39
4.4943004 1.3512825 -2.3381386 7.1851116e-39
4.5166073 1.3874347 -2.3260934 7.9269955e-39
4.4192319 1.4343199 -2.3468795 7.4667432e-39
4.4766855 1.4289517 -2.3429344 9.8616646e-39
4.4149976 1.4737735 -2.3290086 1.3365819e-38
3.7130353 1.544458 -2.305357 9.6779936e-39
3.3895302 1.5840278 -2.3295908 1.5687564e-39
3.4147666 1.572796 -2.3422558 7.425943e-40
3.7261109 1.5771563 -2.3162973 9.4017724e-39
3.7808428 1.5903001 -2.3169284 8.1128329e-39
3.8343189 1.5748529 -2.3416128 8.1135573e-39
3.4352248 1.6207544 -2.3333864 5.2558516e-39
3.4814651 1.6079053 -2.3437405 4.1495096e-39
3.5385883 1.638011 -2.3380725 8.7592925e-39
3.7860196 1.6332064 -2.325151 5.3466123e-39
3.479255 1.6757047 -2.3448701 5.7182716e-39
3.5248098 1.6561313 -2.3330727 4.6122912e-39
4.3650317 1.1895827 -2.2787807 9.4950485e-39
4.329845 1.2298173 -2.2667711 8.9400698e-39
4.4227309 1.2261519 -2.2643259 7.186192e-39
4.519423 1.2377241 -2.2802081 7.6500597e-39
4.5676842 1.2022363 -2.2819729 8.2932613e-39
4.6209211 1.2224057 -2.261061 4.6068808e-39
4.2775421 1.2990923 -2.264647 1.3734601e-38
4.311245 1.2829559 -2.2787571 1.53934e-38
4.3673248 1.2714157 -2.27175 1.1337511e-38
4.4231772 1.2689301 -2.2698636 6.1680786e-39
4.4991679 1.2819695 -2.2755959 5.0689436e-39
4.5639563 1.287173 -2.2739782 8.0181233e-39
4.2864747 1.3438177 -2.2739158 1.1063099e-38
4.3496614 1.3406998 -2.2738254 9.9542245e-39
4.4601288 1.3099728 -2.2914448 6.2631581e-39
4.439436 1.4530166 -2.2779002 8.756403e-39
4.4396482 1.2453576 -2.2394235 7.5603836e-39
4.5813212 1.2399502 -2.2457161 6.0827326e-39
4.3214588 1.2574991 -2.2224801 7.4627831e-39
4.3725109 1.2696753 -2.209094 6.6308589e-39
4.4781594 1.2777904 -2.249824 5.341199e-39
4.5017638 1.2940075 -2.238585 6.2667735e-39
4.3243933 1.3136371 -2.2142329 5.8983385e-39
4.3828936 1.3315194 -2.2161579 5.342641e-39
4.4104705 1.3002257 -2.2214694 4.8845509e-39
4.5224471 1.3304393 -2.2493758 6.0823766e-39
4.2961445 1.3756328 -2.2224989 7.741891e-39
4.4221134 1.3882641 -2.2364433 7.4653111e-39
4.8816919 -2.5073373 -2.1542408 3.7818047e-39
4.2695737 1.3383818 -2.1936035 5.8961707e-39
4.902257 -2.8069715 -2.1303072 2.5847062e-39
4.9065557 -2.514668 -2.1316314 3.9651169e-39
4.7708597 -2.4834754 -2.1037633 5.5241708e-39
4.9308314 -2.8124664 -2.0756488 7.6514904e-39
4.8828487 -2.7909646 -2.0892487 4.1495054e-39
4.9078918 -2.7675488 -2.0700371 8.6656423e-39
4.7918005 -2.7139111 -2.0878155 8.6667409e-39
4.8156438 -2.7219715 -2.0652671 4.9792717e-39
4.9312696 -2.731904 -2.0849462 6.6380573e-39
4.7486782 -2.6590106 -2.0733221 5.8094065e-39
4.8269696 -2.6807108 -2.0752769 3.3226356e-39
4.9214325 -2.6594939 -2.0716219 9.311732e-39
4.7700124 -2.6393592 -2.0857735 1.364315e-38
4.8382974 -2.6393023 -2.0853035 2.7701793e-39
4.8633161 -2.6156297 -2.0664289 4.702682e-39
4.9114938 -2.6035237 -2.0565567 7.9280717e-39
4.7490158 -2.5969419 -2.0804851 1.0601413e-38
4.7610946 -2.5696692 -2.0729706 6.4418041e-39
4.9348011 -2.5831978 -2.0695412 8.5734411e-39
4.7494378 -2.5193558 -2.0894392 1.222349e-38
4.7311511 -2.4585907 -2.0550487 2.4932379e-39
4.81952 -2.4980884 -2.0593033 3.8725612e-39
4.7979851 -2.5501003 -2.0434048 5.2569376e-39
4.7308149 -2.520375 -2.0479181 3.0449683e-39
4.7759991 -2.5075035 -2.0379753 4.8867131e-39
4.7098017 -2.4786856 -2.04269 3.9633247e-39
