# .PCD v0.7 - Point Cloud Data file format
VERSION 0.7
FIELDS x y z rgb
SIZE 4 4 4 4
TYPE F F F F
COUNT 1 1 1 1
WIDTH 283
HEIGHT 1
VIEWPOINT 0 0 0 1 0 0 0
POINTS 283
DATA ascii
4.8911252 1.1015635 -1.7140931 2.7651374e-39
5.1226153 0.97394001 -1.657498 5.3476884e-39
4.8679538 1.0962684 -1.6743201 1.5673173e-39
4.9378209 1.1116756 -1.6662595 3.1339199e-39
5.169879 0.9833982 -1.6405886 7.6525792e-39
4.8458104 1.0594916 -1.6037943 3.5956212e-39
4.8003874 1.143661 -1.6196433 3.5034367e-39
4.8676019 1.1277709 -1.6424427 3.5959841e-39
4.9606676 1.116618 -1.6417179 3.8707661e-39
4.8452425 1.1540906 -1.6032789 4.0587713e-39
4.9844823 1.1543975 -1.6494918 3.6881727e-39
5.0641479 0.86941767 -1.5784687 6.2685686e-39
5.162281 0.91880256 -1.5758151 8.203232e-39
4.8121862 0.97381794 -1.577323 2.2126881e-39
4.9823952 0.97767937 -1.5809187 1.0232615e-38
4.8009791 1.0185302 -1.5890565 2.8580561e-39
5.0063462 1.0135589 -1.556603 1.0602489e-38
4.6920886 1.1486678 -1.567722 3.3194028e-39
4.8000693 1.1433184 -1.5571072 2.1204939e-39
5.1289105 1.1022041 -1.5608608 1.0690719e-38
4.889904 1.1963429 -1.5861545 4.7008925e-39
4.9321327 1.1792974 -1.5594822 1.078688e-38
4.9266348 0.72355628 -1.5221246 8.0192051e-39
4.8240175 0.77155799 -1.5034803 3.0424474e-39
4.8918729 0.81408167 -1.524527 1.8439042e-39
4.9677472 0.8064211 -1.5499742 7.2827205e-39
4.9928579 0.8571589 -1.5254892 9.7691186e-39
5.0202541 0.92423505 -1.5009935 8.2028761e-39
4.6718159 0.97609293 -1.5083632 2.5818336e-39
4.8460579 0.96454698 -1.5411878 3.3176063e-39
5.141335 0.97871542 -1.535951 5.5288525e-39
5.162291 0.95122635 -1.5108711 1.004607e-38
4.7135973 1.0308065 -1.5293621 3.134643e-39
5.0075784 1.0448875 -1.5251598 1.1154215e-38
5.0753493 1.0281073 -1.5463588 6.2678525e-39
4.7354207 1.0663753 -1.5363395 3.6867378e-39
4.7561646 1.1019166 -1.5274997 3.2261212e-39
4.9933906 1.1334463 -1.5494003 9.679088e-39
4.8466263 0.68093359 -1.4671981 8.2021558e-39
4.8021903 0.73685706 -1.4967853 4.0555231e-39
4.8733759 0.74570107 -1.4917506 7.7429798e-39
4.8171964 0.76857769 -1.4719906 3.9640421e-39
4.8781719 0.80686164 -1.4916432 7.2820016e-39
4.9236622 0.84526056 -1.4740046 1.2811928e-38
4.9616714 0.82528448 -1.4979028 4.1473544e-39
4.9714203 0.88436508 -1.4873475 1.0785063e-38
4.630146 0.99245375 -1.4621524 3.0428089e-39
4.735662 0.97358733 -1.4751549 3.4105068e-39
4.8225384 0.99106795 -1.4708716 3.2257596e-39
4.6302285 1.0428458 -1.4720813 1.7520715e-39
4.7563 1.039755 -1.4813656 3.4112327e-39
4.8903728 1.0366889 -1.4914582 4.5164985e-39
4.7373838 0.63426673 -1.4153141 6.0820263e-39
4.7371702 0.696069 -1.4458224 3.6878168e-39
4.7258987 0.7251429 -1.4269426 2.3967206e-39
4.8017125 0.73634291 -1.4029814 9.3999858e-39
4.8237538 0.77269888 -1.4295284 9.218114e-39
4.8761187 0.78987205 -1.4140253 4.9756787e-39
4.9382195 0.85338503 -1.4425342 2.5811175e-39
4.989193 0.85728091 -1.4313239 9.5850945e-39
4.7804451 0.60864091 -1.3972235 2.5803902e-39
4.72577 0.69406009 -1.3654933 7.8319398e-39
4.8235664 0.73948616 -1.378006 8.2936354e-39
4.9264793 0.73875314 -1.3594688 3.8700486e-39
4.823812 0.64499223 -1.3156965 3.1332151e-39
4.8466368 0.67953938 -1.3218057 1.7499135e-39
1.0798315 -0.36273584 -0.4007059 4.7974182e-39
1.0950865 -0.32426354 -0.40301082 4.056249e-39
1.1057096 -0.30268475 -0.4077262 4.3317471e-39
1.1143926 -0.28330591 -0.40749601 4.4232252e-39
1.0733155 -0.3700448 -0.36879933 6.7324446e-39
1.0872065 -0.32794189 -0.37475979 8.573109e-39
1.0987201 -0.29353732 -0.36123723 1.0785075e-38
1.1036404 -0.28810176 -0.3835507 7.3749203e-39
1.0656379 -0.36696899 -0.3150062 8.6692773e-39
1.114641 -0.377529 -0.31582955 1.0421713e-38
1.0777982 -0.33095673 -0.31897295 7.6529575e-39
1.1269546 -0.32480425 -0.31348422 1.0878716e-38
1.0917747 -0.28644377 -0.31609902 7.9270221e-39
1.123198 -0.27602267 -0.31790781 1.0787608e-38
1.221527 -0.28508809 -0.32860115 1.5216961e-38
1.2560043 -0.28104603 -0.31520277 1.5953805e-38
1.0633993 -0.3692286 -0.26718569 9.0376997e-39
1.1047136 -0.3772586 -0.27140817 9.7756248e-39
1.0689541 -0.33515581 -0.26621282 8.1139385e-39
1.1204774 -0.32319927 -0.2646457 1.0787608e-38
1.0883538 -0.27707875 -0.26327857 1.0786889e-38
1.1365194 -0.27553988 -0.27487689 1.2816274e-38
1.1974198 -0.26700398 -0.28944564 1.549211e-38
1.2141776 -0.26866227 -0.28168866 1.5768697e-38
1.0492146 -0.36592215 -0.21212143 1.0881981e-38
1.0824468 -0.37419632 -0.22522648 9.4057535e-39
1.0760909 -0.33069965 -0.22764784 1.0326985e-38
1.1086035 -0.32662416 -0.21605188 1.2818075e-38
1.0778018 -0.27657512 -0.22087319 1.078689e-38
1.1187898 -0.27693412 -0.21631807 1.2539329e-38
1.0457145 -0.36502573 -0.16448852 6.7324516e-39
1.0715444 -0.37387219 -0.17806156 9.1298925e-39
1.0828673 -0.33743548 -0.17928186 1.0695415e-38
1.1165664 -0.30944681 -0.16537549 1.456835e-38
1.0646172 -0.26475072 -0.17775212 1.456763e-38
1.1202331 -0.28107327 -0.17596622 1.2354213e-38
1.1545045 -0.269894 -0.16732648 1.6137476e-38
1.0344052 -0.36300606 -0.11798514 7.0083154e-39
1.0663154 -0.37563527 -0.13637622 1.0788694e-38
1.0447708 -0.33927524 -0.12168124 9.3132076e-39
1.0753214 -0.33522505 -0.13024309 1.0603219e-38
1.1050081 -0.30011618 -0.11778881 1.2629721e-38
1.0666112 -0.27182499 -0.127251 1.1616652e-38
1.1827459 -0.28348219 -0.11652162 1.7059797e-38
1.0305828 -0.36270684 -0.070736259 7.5622137e-39
1.0730354 -0.37822899 -0.074566379 1.0142248e-38
1.0376997 -0.33581406 -0.073304385 9.4979576e-39
1.0786446 -0.32339463 -0.077594407 1.1340425e-38
1.0486883 -0.25688794 -0.066997737 5.0689646e-39
1.0571383 -0.28433728 -0.07115528 1.1523738e-38
1.1106689 -0.27362311 -0.058008354 1.2720109e-38
1.0222185 -0.36156774 -0.022706624 8.7611198e-39
1.0556115 -0.3758226 -0.025940772 1.23553e-38
1.0393106 -0.34224889 -0.035589166 1.0788696e-38
1.0607941 -0.32939368 -0.035450567 1.1617377e-38
1.0471302 -0.29225934 -0.024859924 1.2721919e-38
1.0762575 -0.28148034 -0.018926833 1.1706323e-38
1.1077384 -0.28002983 -0.037734438 1.4102333e-38
1.0074933 -0.35570928 0.0220521 7.2856254e-39
1.0544674 -0.37766588 0.022669602 1.1339349e-38
1.0310841 -0.34150311 0.014267299 1.0880533e-38
1.0584797 -0.33057302 0.013997767 1.1986161e-38
1.0435542 -0.27840731 0.031918015 1.2630084e-38
1.0688877 -0.28281248 0.024451399 1.1338626e-38
1.102846 -0.27794135 0.044073176 1.3920828e-38
1.164717 -0.28225932 0.036760043 1.7239505e-38
1.0311704 -0.37101376 0.069816299 1.1894689e-38
1.0314108 -0.3302516 0.059649095 1.1894322e-38
1.0545555 -0.34787238 0.075854599 1.1249686e-38
1.0361415 -0.27463368 0.079419792 1.2998868e-38
1.07943 -0.2733171 0.073125087 1.3275813e-38
1.1242815 -0.27399325 0.052451722 1.6687413e-38
0.99658459 -0.3579618 0.12556541 1.0050774e-38
1.0216868 -0.36736172 0.12557577 9.8663869e-39
1.0360162 -0.33810169 0.11749229 1.2079444e-38
1.0264534 -0.27267894 0.12924145 1.2445335e-38
1.0745368 -0.27577364 0.12026776 1.3091428e-38
0.99595141 -0.23895337 0.14105052 1.2816284e-38
1.0185732 -0.24607733 0.13790375 7.3756574e-39
0.98985374 -0.36035055 0.17964904 1.0696869e-38
1.0332274 -0.37666795 0.1747434 1.6318996e-38
0.99312043 -0.33803999 0.18414438 8.1157546e-39
1.0271945 -0.33898634 0.17271763 1.1802132e-38
1.0203513 -0.27083823 0.18007977 1.2537532e-38
1.0585859 -0.28476757 0.17977712 1.3550602e-38
1.0294077 -0.24111053 0.16447069 5.0707652e-39
0.98861617 -0.36034942 0.23912352 1.0143691e-38
1.0116429 -0.3719846 0.21517751 1.2541855e-38
0.99016732 -0.33409035 0.22631541 9.8671114e-39
1.0281788 -0.32232448 0.22327393 1.2170919e-38
1.0720289 -0.31214294 0.21216846 1.6873965e-38
1.1257335 -0.31783867 0.2164637 1.669101e-38
0.99744642 -0.29690415 0.24330911 9.3110524e-39
1.0136176 -0.26547185 0.22960059 1.2076916e-38
1.0544192 -0.26735473 0.23041774 1.2999588e-38
1.0175165 -0.24654873 0.24713156 8.5745649e-39
0.97777712 -0.35642546 0.27453974 1.1806113e-38
1.0161071 -0.37680909 0.27138919 1.1986162e-38
0.99024737 -0.33573037 0.28663352 1.1250763e-38
1.0212361 -0.31886467 0.2687161 1.2815928e-38
0.99593204 -0.27512509 0.287292 1.0603948e-38
1.0265194 -0.26765943 0.27022016 1.1893243e-38
1.014163 -0.24664703 0.27802616 8.8518637e-39
0.97943228 -0.35967937 0.3259629 1.2724812e-38
1.0120559 -0.36504507 0.32518107 1.25397e-38
0.98815084 -0.32420692 0.34069785 1.189541e-38
1.0177553 -0.30444345 0.3136043 1.3001033e-38
0.99180931 -0.27179444 0.33265781 1.1063487e-38
1.0198491 -0.26424533 0.32866156 1.207655e-38
0.99787045 -0.24868204 0.34310117 4.5150579e-39
1.0283173 -0.2453119 0.31717873 4.6105046e-39
0.97885531 -0.36473301 0.37584582 1.0511388e-38
0.98013216 -0.32423294 0.3874644 1.2079438e-38
1.0096486 -0.32504359 0.37694204 1.3094323e-38
0.98659343 -0.26920986 0.37521139 1.2077637e-38
1.0252681 -0.27265537 0.37979579 1.3365857e-38
0.99019128 -0.2469033 0.37597051 4.514702e-39
0.98035794 -0.36642441 0.428583 1.106456e-38
0.98411483 -0.33668527 0.42595166 1.1804307e-38
1.0066144 -0.32333821 0.4373354 8.7600324e-39
0.98658448 -0.26523855 0.41100445 1.3552049e-38
1.0229926 -0.26911688 0.43081835 1.2168748e-38
0.96517575 -0.35161752 0.48577559 1.3186146e-38
0.97289729 -0.31792933 0.47075593 1.24475e-38
0.97773474 -0.26600876 0.4587799 1.3644607e-38
1.0127115 -0.27822199 0.45289344 1.2169827e-38
0.93480986 -0.33708313 0.52813733 9.8670946e-39
0.95174307 -0.31468448 0.50751978 1.1989058e-38
0.96484131 -0.27854931 0.51563627 1.1156759e-38
1.0247102 -0.29441786 0.51530814 8.2957794e-39
4.5100589 1.0463976 -1.6390136 3.501978e-39
4.4338727 1.0288171 -1.5824879 3.5019836e-39
4.4527345 1.0330127 -1.5602772 2.397078e-39
4.2695751 1.0748775 -1.5790498 3.500899e-39
4.5091696 1.1192763 -1.5505005 2.9509818e-39
4.6604109 0.98416436 -1.5356063 7.0993998e-39
4.1424627 1.0296267 -1.5051254 3.1335584e-39
4.2176723 1.0068271 -1.5188953 3.3175895e-39
4.3054981 1.027341 -1.5085592 1.7517086e-39
4.1421385 1.0835881 -1.5048311 1.7520645e-39
4.1503601 1.0722754 -1.5348451 3.500899e-39
4.2873235 1.0509979 -1.502094 2.3052383e-39
4.490427 1.0707819 -1.5442001 3.3172364e-39
4.5994797 1.0695993 -1.5130205 1.0049668e-38
4.1391659 1.141263 -1.512519 2.8569701e-39
4.1841278 1.1217988 -1.5472091 2.1208456e-39
4.3220835 1.101665 -1.5141387 3.5945408e-39
4.4423151 1.1462445 -1.5128767 4.7026988e-39
4.5289378 1.1387607 -1.5278022 3.7796607e-39
4.5687971 1.1485428 -1.5115454 2.3038061e-39
4.6816669 1.1465813 -1.5093 1.1800304e-38
4.0686903 1.1575111 -1.5042819 3.0410054e-39
4.548615 1.1731762 -1.5047618 4.9756787e-39
4.4702229 1.2407289 -1.5075848 4.6072465e-39
4.2858157 1.3020893 -1.5007252 3.7800124e-39
4.887579 0.65712225 -1.4679335 1.3271824e-38
4.8553596 0.80323911 -1.4545707 1.1336809e-38
4.6352181 0.97445852 -1.4797648 7.100497e-39
4.1673355 1.035642 -1.4870762 1.8442601e-39
4.5927515 1.0123953 -1.4556596 6.3607614e-39
4.6048245 1.0288895 -1.4875045 9.0340689e-39
4.1840138 1.0942717 -1.4928522 3.1335556e-39
4.4887156 1.0707406 -1.4762446 1.0789768e-38
4.5424891 1.0702591 -1.4660913 7.0968943e-39
4.675961 1.0883541 -1.4801763 1.0695041e-38
4.1667647 1.1305537 -1.4865589 3.501978e-39
4.2166376 1.1438168 -1.4769455 3.3175867e-39
4.268816 1.1299837 -1.4953269 3.6852902e-39
4.3216872 1.1437013 -1.4857565 3.7785649e-39
4.0242596 1.1799529 -1.4789804 3.5949009e-39
4.0685558 1.1573659 -1.4777788 4.1462712e-39
4.1277661 1.1738051 -1.4724593 3.2257526e-39
4.2163901 1.1849815 -1.4767212 2.3052397e-39
4.2774262 1.1739182 -1.4703891 2.3034432e-39
4.3584661 1.1674125 -1.470017 3.962603e-39
4.0328131 1.2394071 -1.4775615 5.5496744e-40
4.0839458 1.2414027 -1.4565536 3.7789278e-39
4.1991415 1.2212542 -1.4705387 2.0272164e-39
4.3041773 1.2233013 -1.4794487 5.2518999e-39
4.0248213 1.2828913 -1.4810203 8.3083406e-40
4.2159791 1.2535895 -1.4763472 5.5292028e-39
4.0055799 1.3225951 -1.4803438 2.2108888e-39
4.0836015 1.3213687 -1.482726 5.2536978e-39
4.1656251 1.3203763 -1.4855242 3.7803683e-39
4.0514207 1.3640102 -1.497211 5.1614993e-39
4.9018936 0.59846401 -1.4125206 5.3458934e-39
4.7967525 0.61492521 -1.4118311 1.4379253e-38
4.6941662 0.65916169 -1.4022834 1.9350208e-39
4.7809415 0.67229933 -1.4057642 7.2812757e-39
4.8260212 0.70867312 -1.433133 7.9262906e-39
4.8709879 0.74578053 -1.4303937 1.6406122e-38
4.9265089 0.76996768 -1.415429 1.6129528e-38
4.9806113 0.76345712 -1.4001001 5.3440955e-39
4.8768916 0.82227063 -1.4149978 6.7295537e-39
4.9248767 0.87616026 -1.4429917 5.622846e-39
4.5753269 1.0364878 -1.4494545 5.7164766e-39
4.3835735 1.0852041 -1.4409637 5.3466165e-39
4.4039154 1.1306206 -1.4464508 1.2443145e-38
4.8187871 0.58511072 -1.3679422 5.1615049e-39
4.6731787 0.62570322 -1.3657403 2.395999e-39
4.7280989 0.62559217 -1.3717573 7.0961656e-39
4.9671226 0.60705733 -1.3689864 1.1523717e-38
4.6624751 0.66994059 -1.3776326 2.7644228e-39
4.7797685 0.67233855 -1.3756267 1.3731357e-38
4.8206859 0.67846417 -1.3571739 7.2751423e-39
4.9055328 0.67569327 -1.3504682 5.8050737e-39
4.8780966 0.7169643 -1.3875645 1.0873656e-38
5.0005536 0.73577398 -1.3751718 7.5560676e-39
4.6521134 0.59243667 -1.314324 2.1197708e-39
4.7372828 0.57212633 -1.3231174 3.2268414e-39
4.6452255 0.63194084 -1.317245 4.6068906e-39
4.7766976 0.62091976 -1.3316618 7.4617041e-39
4.8803706 0.62655908 -1.3447006 7.7436986e-39
4.99193 0.64150262 -1.3437991 4.9760347e-39
4.6936998 0.65865898 -1.3105916 2.210163e-39
4.757556 0.69841915 -1.3283157 1.8421063e-39
5.0169582 0.6760636 -1.3497277 1.0047871e-38
