# .PCD v0.7 - Point Cloud Data file format
VERSION 0.7
FIELDS x y z rgb
SIZE 4 4 4 4
TYPE F F F F
COUNT 1 1 1 1
WIDTH 225
HEIGHT 1
VIEWPOINT 0 0 0 1 0 0 0
POINTS 225
DATA ascii
4.3510351 1.533509 -2.2166109 8.2050299e-39
4.4684238 1.5255904 -2.2239759 8.7574932e-39
4.6827197 1.611407 -2.2389245 8.2965193e-39
4.4657321 1.47496 -2.1739898 5.6232019e-39
4.4441381 1.5299177 -2.1637783 7.2816513e-39
4.5104208 1.5196363 -2.1613979 9.1266331e-39
4.593276 1.6122817 -2.1984224 1.3094306e-38
4.4298677 1.44559 -2.1253171 6.1763771e-39
4.4759307 1.4121863 -2.1137598 6.7306257e-39
4.3848457 1.4784693 -2.136766 5.7146759e-39
4.4542909 1.4674217 -2.1038141 8.2057558e-39
4.3632879 1.5321842 -2.1265774 9.5865392e-39
4.4722452 1.5359272 -2.1114371 1.4751653e-38
4.5370245 1.5417281 -2.1237626 6.5447981e-39
4.4497037 1.6214139 -2.100924 1.1062022e-38
4.6018662 1.6113527 -2.1352997 1.069324e-38
4.2097521 1.4496987 -2.0871658 5.2536978e-39
4.4146614 1.4233166 -2.0863996 8.390147e-39
4.502984 1.4181694 -2.0766401 9.0340857e-39
4.5934415 1.4444263 -2.0659814 5.7146787e-39
4.4178743 1.4533896 -2.0555444 5.6246411e-39
4.5924983 1.4760839 -2.0653872 1.0322657e-38
4.2486229 1.5210252 -2.0738902 1.0233709e-38
4.477344 1.5045401 -2.0813222 4.9771137e-39
4.2884727 1.5937147 -2.0605159 8.2028817e-39
4.3664708 1.5619879 -2.0959983 1.217235e-38
4.4204636 1.5641732 -2.0882106 8.1132126e-39
4.4406724 1.4291435 -2.0495591 8.2057642e-39
4.4626083 1.4665223 -2.0426941 5.8057953e-39
4.2150292 1.5364575 -2.0275655 9.2184756e-39
1.0678484 -0.26338425 -0.57063067 8.0231876e-39
1.0721371 -0.23143932 -0.57241559 9.8663771e-39
1.0923427 -0.18394871 -0.58053517 1.0508491e-38
1.1064602 -0.16826461 -0.56204844 1.2811588e-38
1.1536678 -0.15773512 -0.55556965 1.5952369e-38
1.0606189 -0.25800321 -0.5058226 7.8391579e-39
1.0781915 -0.23048709 -0.50346243 9.8652981e-39
1.0889052 -0.1830937 -0.50311118 1.1060949e-38
1.1190822 -0.16289096 -0.52146661 1.5766535e-38
1.1560771 -0.15799059 -0.5279361 1.6229673e-38
1.0645686 -0.26011336 -0.47043818 4.6112276e-39
1.0769691 -0.23301108 -0.45473284 1.0234439e-38
1.0869851 -0.18297215 -0.45451832 1.1244977e-38
1.0723381 -0.25956163 -0.42096686 9.9600147e-39
1.086257 -0.22310589 -0.4185988 8.5749124e-39
1.0920353 -0.16836303 -0.42472494 1.0692529e-38
1.1061773 -0.15395539 -0.4082523 1.005221e-38
1.1039531 -0.13997237 -0.40836781 8.2075803e-39
1.1681631 -0.14709741 -0.42473853 1.6046004e-38
1.0742152 -0.26001596 -0.37028256 8.2990556e-39
1.0835792 -0.226463 -0.36888456 9.4972331e-39
1.0918169 -0.16748336 -0.36301565 1.0693611e-38
1.1117615 -0.15395463 -0.38535804 1.1804289e-38
1.1249201 -0.13927761 -0.39783344 8.3919743e-39
1.163461 -0.14462924 -0.39457005 8.6685598e-39
1.0793252 -0.25954705 -0.3176733 5.0725701e-39
1.0827764 -0.22402966 -0.31859711 9.2202903e-39
1.0894886 -0.16496935 -0.31607842 1.0787247e-38
1.12032 -0.14973472 -0.30984631 1.7151995e-38
1.0821358 -0.25589001 -0.27649012 3.9658624e-39
1.0796627 -0.22648035 -0.26321045 9.4965184e-39
1.0875831 -0.16967165 -0.27044624 1.0693254e-38
1.1082188 -0.14806984 -0.29141906 9.7741941e-39
1.0654156 -0.25875413 -0.21576175 9.4050431e-39
1.0755545 -0.22570795 -0.21324857 9.4046829e-39
1.0879273 -0.16583681 -0.21603207 1.1522654e-38
1.0710952 -0.25376183 -0.17758328 5.4406352e-39
1.0698546 -0.23042195 -0.1668683 8.0221086e-39
1.0893235 -0.17205501 -0.16210398 1.0232642e-38
1.0648544 -0.25308055 -0.12589294 1.0420641e-38
1.0752788 -0.223556 -0.11346659 9.1284576e-39
1.0905981 -0.16426724 -0.11532934 1.1523017e-38
1.1058137 -0.14814466 -0.13658893 3.5913024e-39
1.0577877 -0.25231117 -0.062385626 4.1498879e-39
1.0674682 -0.2373618 -0.072775088 1.0051141e-38
1.0862232 -0.17604344 -0.062889852 1.1983997e-38
1.1159543 -0.13418931 -0.086025387 1.4560769e-38
1.0656389 -0.25285468 -0.024701452 6.0860074e-39
1.0690479 -0.23260419 -0.025690265 1.0235534e-38
1.0869709 -0.17682861 -0.016006598 1.1708136e-38
1.0720035 -0.25460196 0.023830248 6.0860088e-39
1.0675077 -0.23644286 0.025508199 8.7607639e-39
1.0845164 -0.17537266 0.02730081 1.1615938e-38
1.0874047 -0.14220746 0.039058 1.032628e-38
1.1303524 -0.14027269 0.017215712 1.0691083e-38
1.0664374 -0.25335264 0.072113566 7.099802e-39
1.0617926 -0.23984982 0.075928695 1.1896138e-38
1.0813774 -0.17675669 0.076884836 1.1615936e-38
1.1423038 -0.15160795 0.070227496 9.6791118e-39
1.2097839 -0.15327123 0.084622428 9.6787545e-39
1.0895129 -0.1331508 0.090261862 6.6362665e-39
1.1022518 -0.14100547 0.053460144 6.5419367e-39
1.0651033 -0.25317591 0.1238779 5.9005329e-39
1.0633738 -0.23509724 0.12589899 9.3146607e-39
1.0760955 -0.17521878 0.13016319 1.1524464e-38
1.0969905 -0.13813379 0.14347054 9.4021648e-39
1.0643547 -0.25314483 0.1755897 5.5339182e-39
1.0695655 -0.22865337 0.17946038 7.5622221e-39
1.0804625 -0.17451654 0.18133342 1.0233366e-38
1.0958225 -0.13746773 0.17352146 5.5317406e-39
1.1248871 -0.13758153 0.18199195 8.2039551e-39
1.060694 -0.25450522 0.22099866 6.3625985e-39
1.0626985 -0.23656534 0.22554356 1.0882354e-38
1.0776156 -0.17391847 0.23161884 1.060179e-38
1.120858 -0.14407113 0.21457902 2.0268535e-39
1.0499407 -0.25214839 0.2936053 6.7321069e-39
1.0631856 -0.25411057 0.27052054 4.7945483e-39
1.0499996 -0.23969938 0.29254085 5.5339252e-39
1.0613053 -0.22325449 0.27643746 9.1306338e-39
1.0759634 -0.17216827 0.28217477 1.0693985e-38
1.07917 -0.13833942 0.26617014 7.2776828e-39
1.0543571 -0.25262344 0.32142258 5.9030595e-39
1.0590053 -0.22576432 0.33443582 9.3143006e-39
1.0714706 -0.16968574 0.33141378 1.0234086e-38
1.0788089 -0.14546549 0.33267584 5.8987168e-39
1.0512611 -0.25359327 0.37190822 4.149895e-39
1.0613259 -0.22358344 0.37383473 8.8540413e-39
1.0712124 -0.16703433 0.37136027 9.8642247e-39
1.0912778 -0.13609137 0.38294408 3.5938177e-39
1.0545735 -0.25309333 0.40510425 6.7342719e-39
1.0588075 -0.220557 0.40894613 4.7041575e-39
1.0683116 -0.17027374 0.41143754 5.5331909e-39
1.0738415 -0.14320059 0.40796456 5.5321063e-39
3.9633112 1.5116277 -2.1176643 9.0326214e-39
4.6915183 1.2785245 -2.0747247 1.3733884e-38
4.0988731 1.4413761 -2.0654488 6.3632851e-39
3.9845986 1.4618499 -2.0991306 8.9411474e-39
3.8655968 1.5556483 -2.068294 9.0311752e-39
3.7989407 1.6109228 -2.0626917 2.5843405e-39
4.6123629 1.0952678 -2.0096917 5.990181e-39
4.6841311 1.0788466 -2.0055618 6.3603984e-39
4.5843997 1.1851919 -2.0306602 6.8217423e-39
4.628015 1.1646569 -2.0489736 5.3455403e-39
4.6168923 1.2409875 -2.0271745 9.5883329e-39
4.7002325 1.2775823 -2.0106983 4.9785556e-39
3.8746819 1.4335977 -2.0304008 9.4010437e-39
3.912421 1.4313762 -2.0057807 7.7447776e-39
3.9777 1.4272635 -2.0298147 7.1905192e-39
4.0858064 1.4349167 -2.0293293 5.8075932e-39
3.7937188 1.4583693 -2.0184374 9.1244541e-39
3.9630685 1.4623109 -2.0009196 6.638793e-39
4.0582423 1.4677396 -2.0162916 8.4827056e-39
3.8317933 1.5264581 -2.0229845 8.3883282e-39
4.0983815 1.5237409 -2.0047684 7.4692823e-39
3.4807513 1.580126 -2.0040855 2.8161335e-40
3.5488884 1.584375 -2.0143504 3.7309291e-40
3.7070265 1.5995238 -2.0433245 7.4187263e-40
3.7649961 1.5670573 -2.0082774 5.7161122e-39
3.8190479 1.5636121 -2.0448246 6.8202948e-39
3.9226005 1.6146586 -2.0098736 8.8493119e-39
4.0612292 1.6543584 -2.0167818 1.0876549e-38
4.0221176 1.725192 -2.0277166 1.0601395e-38
3.9998338 1.7740306 -2.0463734 1.1063094e-38
3.6288407 1.8490698 -2.0019784 8.481614e-39
3.7663863 1.8085698 -2.0173836 9.5879616e-39
3.877058 1.8327599 -2.0442848 1.0877982e-38
3.5839884 1.8791898 -2.005393 9.4046521e-39
3.731636 1.8733698 -2.0273767 1.0602116e-38
3.8103092 1.857005 -2.0393186 1.0142217e-38
3.6370406 1.933334 -2.0331039 1.0787944e-38
4.7331924 1.0889139 -1.9913136 9.4003361e-39
4.5259938 1.1368766 -1.9740278 8.9400754e-39
4.5784931 1.1282117 -1.9736377 7.6450122e-39
4.6384997 1.1001133 -1.9870452 8.9393551e-39
4.5250678 1.1679552 -1.9734446 1.0320845e-38
4.5684767 1.1944261 -1.974628 8.75208e-39
4.7307792 1.1699619 -1.9897925 6.5379388e-39
4.5919724 1.2157861 -1.9675277 6.4482753e-39
3.8302243 1.4294728 -1.9943966 9.5854308e-39
3.7801518 1.4655089 -1.9976591 8.6638388e-39
3.8140566 1.4636353 -1.9863473 6.6366238e-39
3.8793452 1.4599974 -1.9897209 5.4402414e-39
3.9294808 1.4911937 -1.9848497 1.0046779e-38
4.0156693 1.4943894 -1.9962724 7.7472986e-39
3.8278408 1.5094888 -1.992895 5.9930579e-39
3.9233444 1.5376943 -1.9784793 8.1113881e-39
3.965147 1.5169909 -1.972558 8.8489532e-39
3.4057977 1.5698373 -1.963621 5.5748137e-40
3.5229163 1.5845245 -1.9632467 3.5055779e-39
3.596086 1.5764259 -1.9858822 3.3208307e-39
3.6939576 1.599322 -1.9908403 7.2845155e-39
3.7476604 1.57179 -1.9811112 8.7596568e-39
3.8183732 1.573012 -1.9879986 1.0600679e-38
3.9448252 1.5794272 -1.9772342 7.2819932e-39
4.0854125 1.5762594 -1.9985368 5.9916159e-39
3.4047267 1.6057874 -1.9629463 1.0184539e-39
3.4639258 1.6074678 -1.9690095 2.3992318e-39
3.5411062 1.6273875 -1.957255 8.0231568e-39
3.5835729 1.645252 -1.9525476 1.4797936e-39
3.6705236 1.6317397 -1.9697788 1.2957653e-39
3.773572 1.6125667 -1.9751365 3.7828921e-39
3.87412 1.6354393 -1.9864283 7.3749133e-39
3.9586143 1.6278095 -1.9980388 5.8072233e-39
3.4291458 1.6776147 -1.963057 6.6398636e-39
3.4552374 1.6573483 -1.9727901 4.9796248e-39
3.5171304 1.6556758 -1.9709545 7.4685467e-39
3.5664141 1.6645406 -1.9702451 7.8384124e-39
3.6623847 1.6670293 -1.9655471 1.2946821e-39
3.7300782 1.6697993 -1.9719951 1.8475013e-39
3.7927744 1.6695 -1.9750756 4.1487921e-39
3.8654287 1.6726651 -1.9820775 9.956028e-39
3.9573836 1.6691259 -1.9972636 1.1061297e-38
3.4125335 1.7059181 -1.9541003 5.8111819e-39
3.509624 1.7020001 -1.9668657 4.7044911e-39
3.5879855 1.7321274 -1.9811974 7.8369719e-39
3.6434345 1.7119763 -1.9828912 1.4797936e-39
3.6961915 1.721941 -1.9823636 3.1353563e-39
3.7144499 1.7022116 -1.96411 5.5295588e-39
3.7575231 1.7488613 -1.9852993 1.0048221e-38
3.8065393 1.7160307 -1.9816104 1.0693237e-38
3.4691017 1.7793046 -1.9754977 5.9926893e-39
3.5504224 1.7580056 -1.9616472 2.9520468e-39
3.6628544 1.7732623 -1.9925944 5.8990546e-39
3.7093985 1.7545029 -1.988891 4.977464e-39
3.3986681 1.8092223 -1.9591284 1.8471412e-39
3.4364231 1.8050009 -1.9795364 1.2936017e-39
3.4896979 1.8249767 -1.9821126 2.7669283e-39
3.5537622 1.8113159 -1.9764297 4.885267e-39
3.6617084 1.8117573 -1.9918721 9.8645484e-39
3.4382496 1.8530451 -1.9546167 8.8485986e-39
3.5716515 1.6016769 -1.946612 8.8525559e-39
3.4575524 1.7257075 -1.939427 1.4790761e-39
3.3748124 1.8205123 -1.9462107 6.6362539e-39
3.3573589 1.8590404 -1.9366789 6.2689231e-39
3.4125168 1.8634104 -1.9408745 9.4957659e-39
