# .PCD v0.7 - Point Cloud Data file format
VERSION 0.7
FIELDS x y z rgb
SIZE 4 4 4 4
TYPE F F F F
COUNT 1 1 1 1
WIDTH 287
HEIGHT 1
VIEWPOINT 0 0 0 1 0 0 0
POINTS 287
DATA ascii
4.5736718 -2.2118008 -2.5330963 1.6627527e-39
4.5535307 -2.1691051 -2.5227096 1.6627527e-39
4.5167899 -2.1160028 -2.4694822 1.6620339e-39
4.524025 -2.1147645 -2.4221337 1.6620339e-39
4.4403162 -2.1068451 -2.3625445 1.2939702e-39
4.3831825 -2.0846019 -2.3830709 1.6616751e-39
4.6793995 1.907112 -2.35884 7.6500555e-39
4.7459884 1.900857 -2.3926342 1.3272162e-38
4.7735415 1.9751495 -2.3736684 8.6645605e-39
4.3743215 -2.171108 -2.3282402 1.386163e-39
4.6842403 -2.1975656 -2.3000929 9.9441632e-39
4.2919836 -2.1338208 -2.3188455 1.3861658e-39
4.254415 -2.0658872 -2.3213589 1.202855e-39
4.3190494 -2.0814123 -2.3008497 1.5705571e-39
4.6397591 1.8910429 -2.3052835 6.3614676e-39
4.6147127 1.9132121 -2.3260119 5.5310007e-39
4.6622872 1.9942194 -2.3181362 8.8503965e-39
4.6844001 -2.4227922 -2.2628844 2.3066746e-39
4.6813226 -2.3911917 -2.2957208 2.6729418e-39
4.6391506 -2.3353612 -2.258287 8.3667538e-39
4.6630797 -2.30428 -2.2652171 1.1421462e-38
4.6827807 -2.2943788 -2.2979066 1.2986255e-38
4.6835108 -2.2459726 -2.2989998 1.0780046e-38
4.6544385 -2.1967244 -2.2512479 1.1317731e-38
4.7127962 -2.1752059 -2.2638154 7.0925769e-39
4.2184725 -2.0671525 -2.281357 1.6627527e-39
4.2787199 -2.0932722 -2.2801416 1.2939702e-39
4.5539474 1.8270109 -2.2612684 5.6228306e-39
4.6643519 1.8998811 -2.2844861 8.2950591e-39
4.6688042 1.963871 -2.2544107 5.6228306e-39
4.7137117 2.0295329 -2.2772994 9.0322682e-39
4.687963 -2.4221208 -2.2307765 1.7542267e-39
4.6404338 -2.3669937 -2.2416637 2.6743809e-39
4.6666789 -2.3783383 -2.2209129 2.39925e-39
4.6790619 -2.3436625 -2.2190914 1.1427945e-38
4.6703348 -2.2922373 -2.2015417 9.7659026e-39
4.6441245 -2.238801 -2.2286489 1.2348821e-38
4.6630287 -2.1923523 -2.21068 1.1606927e-38
4.7181673 -2.1741943 -2.2154207 4.3285185e-39
4.5142546 1.6892891 -2.2070684 1.0878337e-38
4.4818234 1.754076 -2.2239869 8.3887037e-39
4.5372133 1.8199807 -2.2203999 8.2943389e-39
4.6035037 1.8756119 -2.2212396 8.8478658e-39
4.6378818 1.9198496 -2.2222128 6.4511535e-39
4.7190852 1.9189847 -2.2111671 1.0599597e-38
4.7188158 -2.3680835 -2.1787643 1.937539e-39
4.6965485 -2.3239648 -2.1687474 2.6725887e-39
4.6752248 -2.2806387 -2.1591713 2.3052425e-39
4.6499004 -2.2058387 -2.1816657 9.7413967e-39
4.6671066 -2.2342386 -2.1671546 5.9775833e-39
4.698493 -2.1948805 -2.1716621 6.3456498e-39
4.886909 1.4654012 -2.1573346 6.0827297e-39
4.4149518 1.6839803 -2.1578784 9.9570972e-39
4.4970222 1.652271 -2.1659381 1.2627533e-38
4.5406141 1.8206216 -2.18975 1.0139688e-38
4.8366718 1.2746675 -2.1325979 2.9498902e-39
4.8603449 1.3291389 -2.1438892 8.568402e-39
4.8739252 1.3650831 -2.1337347 5.5295546e-39
4.8326607 1.4063503 -2.1211786 5.9912516e-39
4.8429132 1.4519353 -2.1042116 1.0413747e-38
4.4793062 1.585131 -2.1243999 1.3548764e-38
4.3986135 1.647828 -2.1179068 5.5295588e-39
4.4595952 1.6086617 -2.1152949 1.032336e-38
4.392581 1.7277036 -2.1396401 7.0975963e-39
4.4623308 1.7901787 -2.1193936 1.1520107e-38
4.6365976 1.7609171 -2.1039729 6.6348315e-39
4.5233355 1.8438799 -2.1495152 7.6496869e-39
4.5917354 1.807194 -2.1166265 8.7560499e-39
4.8189116 1.3811262 -2.0763211 7.3741944e-39
4.8781562 1.3663379 -2.0691051 6.2664035e-39
4.7985048 1.4225525 -2.0513666 8.2950675e-39
4.8457661 1.4846755 -2.0727968 9.215219e-39
4.37849 1.625217 -2.0688083 7.2812757e-39
4.4261651 1.6761365 -2.058291 1.5668186e-38
4.4858675 1.7984904 -2.0989673 7.9277241e-39
4.8220463 1.382056 -2.0284245 5.6214041e-39
4.8118792 1.426621 -2.0245075 9.4939653e-39
4.3621283 1.5379996 -2.0209343 6.544068e-39
1.0401053 -0.15264858 -0.56894922 1.0233719e-38
1.0507311 -0.10510598 -0.57424605 1.1523364e-38
1.0616798 -0.078779891 -0.55294228 1.1245339e-38
1.0393595 -0.15121526 -0.54265481 8.8529497e-39
1.0529803 -0.10911758 -0.5430094 9.9553218e-39
1.0656724 -0.064983755 -0.52217591 1.1617008e-38
1.0429448 -0.15149623 -0.49246401 9.0366221e-39
1.05677 -0.10241556 -0.49467999 1.0506698e-38
1.0159301 -0.072625153 -0.46497563 7.6551212e-39
1.0559189 -0.066202067 -0.49365914 1.1431173e-38
1.0299493 -0.024789877 -0.47116765 1.0324455e-38
1.0343406 0.0063504726 -0.47179082 9.5854546e-39
1.0457793 -0.15591565 -0.41058916 3.5059619e-39
1.050379 -0.1538676 -0.40193379 8.3919617e-39
1.0443863 -0.14905937 -0.443174 8.8518707e-39
1.0550745 -0.10263181 -0.42356801 1.0507774e-38
1.0200197 -0.075690143 -0.43760774 8.5763586e-39
1.0614253 -0.069966525 -0.41203916 1.0137908e-38
1.0302705 -0.028607644 -0.44232535 1.0231183e-38
1.1138833 -0.043280501 -0.42007139 5.5335539e-39
1.0346178 0.0075958893 -0.43961206 1.0138621e-38
1.042828 -0.16715002 -0.3959744 2.3985353e-39
1.0505539 -0.16700426 -0.39524344 3.9662198e-39
1.0429288 -0.14746666 -0.38258302 8.852228e-39
1.0546536 -0.11754727 -0.38127571 9.1266401e-39
1.0224079 -0.074206166 -0.38765928 9.3135649e-39
1.060313 -0.069197759 -0.38014853 1.0600691e-38
1.0309517 -0.026318625 -0.39209983 1.0692162e-38
1.0689647 -0.049932357 -0.39408422 5.4417142e-39
1.1170062 -0.043846659 -0.37050259 1.3187586e-38
1.1599516 -0.035855167 -0.38756871 1.3648203e-38
1.0344969 0.0089870915 -0.39089224 1.0969114e-38
1.0436852 -0.15842715 -0.31911647 4.519032e-39
1.0518521 -0.16666187 -0.32502812 2.0297472e-39
1.0433569 -0.14454161 -0.32819247 6.5480561e-39
1.0543585 -0.1159132 -0.33238751 9.1270044e-39
1.0338283 -0.084930226 -0.33872962 9.956049e-39
1.0583516 -0.065260075 -0.33335471 1.0417385e-38
1.0286993 -0.026513919 -0.33946395 1.0784359e-38
1.0367347 0.016877871 -0.34403807 1.1616651e-38
1.0473725 -0.16106704 -0.28233507 5.5335525e-39
1.0411289 -0.13755207 -0.27668154 9.3121272e-39
1.0526882 -0.11766415 -0.27578187 9.1266485e-39
1.0256618 -0.081337631 -0.28540835 7.3756546e-39
1.0564039 -0.063163266 -0.27754012 1.1154948e-38
1.0224735 -0.02559001 -0.28782427 9.9556833e-39
1.0276289 0.017499395 -0.29262576 1.1247151e-38
1.0446613 -0.16026595 -0.22765797 6.0867178e-39
1.0422964 -0.13048305 -0.22501306 9.2192099e-39
1.0548023 -0.1218875 -0.23010115 1.0232637e-38
1.0279952 -0.079711586 -0.23938763 9.5879924e-39
1.0580699 -0.067050964 -0.22809221 1.1246784e-38
1.0225114 -0.021083226 -0.22298171 1.0600335e-38
1.0708076 -0.048079267 -0.23235758 1.3555643e-38
1.0281814 0.017012168 -0.24119893 1.1616288e-38
1.0384791 -0.15736328 -0.18312262 4.8881761e-39
1.0505681 -0.16359673 -0.19559634 1.0874076e-42
1.0393727 -0.14291579 -0.17315252 8.482728e-39
1.0515507 -0.12332558 -0.17499726 8.2979738e-39
1.0308497 -0.082050085 -0.18454899 9.9567721e-39
1.0568709 -0.069232896 -0.17677359 1.0693255e-38
1.0208557 -0.027606107 -0.18707404 1.0692175e-38
1.0649692 -0.048732791 -0.16893449 1.4569799e-38
1.0277892 0.016093891 -0.17834206 1.0968399e-38
1.0437876 -0.15479146 -0.11150825 1.0143693e-38
1.0374085 -0.13197818 -0.13277549 1.0880539e-38
1.0530546 -0.11822186 -0.11567412 8.2972522e-39
1.0300841 -0.078920685 -0.13497069 1.0325916e-38
1.057762 -0.065208912 -0.12716711 1.041631e-38
1.0214723 -0.024008825 -0.13711545 1.1246786e-38
1.0730947 -0.044026114 -0.12877345 1.4015186e-38
1.0282973 0.012137778 -0.13768566 1.0969125e-38
1.0375996 -0.15469718 -0.064461157 6.4544256e-39
1.0403906 -0.1272274 -0.070007637 8.8515147e-39
1.0561701 -0.10024467 -0.08329232 1.1154594e-38
1.0288535 -0.076483101 -0.085398771 9.6809097e-39
1.0560949 -0.0645696 -0.074903227 1.0969479e-38
1.0330949 -0.035589471 -0.08929123 9.4021634e-39
1.0652339 -0.048027765 -0.082231589 1.032519e-38
1.0337573 0.022859307 -0.093211003 8.8457316e-39
1.0356534 -0.15201382 -0.016851008 1.1066734e-38
1.0369289 -0.13538778 -0.022149354 9.3132146e-39
1.0260563 -0.06841512 -0.030204449 1.0233723e-38
1.0590131 -0.072148539 -0.026112569 1.0877648e-38
1.0248573 -0.029506885 -0.034733173 1.1892522e-38
1.0742095 -0.04643327 -0.028412037 1.5025364e-38
1.023499 0.018536963 -0.038596861 1.1983272e-38
1.0391095 -0.15513623 0.034843069 1.1342958e-38
1.0368495 -0.13460514 0.026924962 9.590163e-39
1.0289927 -0.070641302 0.017152939 9.7731095e-39
1.0556474 -0.06183387 0.026880659 1.1522657e-38
1.0282185 -0.029718459 0.008887005 1.1154595e-38
1.0664508 -0.044932716 0.023487847 1.3642792e-38
1.023532 0.020044744 0.010453641 1.2629724e-38
1.0373945 -0.15426606 0.069189988 1.0788703e-38
1.0364857 -0.13572931 0.076190755 1.0327009e-38
1.0291946 -0.076815099 0.07319057 1.0603589e-38
1.0524337 -0.065321952 0.078893587 1.15223e-38
1.0322776 -0.025237478 0.057748642 1.0417749e-38
1.0608912 -0.032714155 0.076427512 1.4286349e-38
1.0252025 0.027574435 0.061840229 1.2075468e-38
1.0369076 -0.15610874 0.11156064 1.1431902e-38
1.0378109 -0.1353595 0.12647936 1.005078e-38
1.0251769 -0.068598926 0.1274036 1.0511395e-38
1.0546502 -0.070667654 0.12498531 1.1245713e-38
1.0326967 -0.032501392 0.12296574 1.2168746e-38
1.0568434 -0.042479511 0.12398515 9.8634989e-39
1.0257144 0.022000644 0.11233178 1.1891082e-38
1.0391028 -0.15016374 0.15242074 1.1987611e-38
1.057925 -0.15459393 0.16789922 2.1219442e-39
1.0373669 -0.13257375 0.17884332 9.4986918e-39
1.0267857 -0.075382233 0.16996482 9.4054088e-39
1.0521246 -0.07994476 0.17534423 1.1247154e-38
1.0263392 -0.031297147 0.1701328 1.0417752e-38
1.0559938 -0.039848771 0.17784792 1.0878007e-38
1.0175998 0.034473762 0.16277349 1.3828626e-38
1.0384166 -0.13500018 0.22631744 8.6685682e-39
1.0249848 -0.076260582 0.22150722 1.0511759e-38
1.0526525 -0.073484197 0.22138181 9.7720291e-39
1.0248399 -0.021884648 0.22141822 1.2078356e-38
1.0565813 -0.041038338 0.2286582 1.2998864e-38
1.0267317 0.023230065 0.22471578 1.1153149e-38
1.039139 -0.13481244 0.27911448 9.130268e-39
1.0291647 -0.076875031 0.27360904 1.0603953e-38
1.0540648 -0.067897737 0.27288973 1.050995e-38
1.0277582 -0.027192492 0.27185839 1.2538613e-38
1.0276338 0.03375499 0.27126148 1.272011e-38
1.0399004 -0.13214216 0.33082455 9.3150194e-39
1.0271344 -0.073241122 0.31459934 8.6682067e-39
1.0549107 -0.06684164 0.32585683 1.1524105e-38
1.0305769 -0.027567696 0.31581631 1.0878733e-38
1.0575814 -0.040150873 0.31531525 3.410518e-39
1.0221714 0.026679721 0.31045213 1.1339714e-38
1.037976 -0.13323803 0.38028237 8.6696486e-39
1.0506797 -0.12137848 0.39478606 7.1945115e-39
1.0444033 -0.088345945 0.37446034 7.7451672e-39
1.0524421 -0.076776303 0.37965736 1.0602509e-38
1.0456882 -0.047042064 0.37570775 1.0970928e-38
1.0552138 -0.036895219 0.36505923 6.5433618e-39
1.0465769 -0.13273217 0.42176482 1.0606117e-38
1.0500263 -0.14070088 0.41642529 2.8613211e-39
1.0456654 -0.089865886 0.41052347 1.0238778e-38
1.0519304 -0.065616816 0.42526829 1.0512474e-38
1.0450451 -0.048651561 0.40531027 9.9593e-39
1.0551132 -0.034146961 0.42736223 9.4921828e-39
1.028548 -0.12827721 0.53860307 7.3763552e-39
1.0492182 -0.067846008 0.52164721 7.1012173e-39
1.0689385 -0.086431704 0.53391069 8.203232e-39
1.0381135 -0.10795256 0.56422758 8.1139245e-39
1.0497878 -0.071500331 0.56352437 9.0398423e-39
4.6093903 1.5974833 -2.1887033 1.3732799e-38
4.5888195 1.5296179 -2.1463354 5.9880034e-39
4.7286816 1.5448568 -2.1082332 1.1153124e-38
4.7116575 1.6312819 -2.1024146 4.60905e-39
4.8866615 1.329765 -2.0674963 5.1625741e-39
4.4538574 1.5308357 -2.0638428 9.5850791e-39
4.5164285 1.5186727 -2.0589638 6.5411786e-39
4.5987573 1.5166316 -2.0697911 8.021003e-39
4.918612 1.5276036 -2.0830452 5.9894621e-39
4.9654899 1.510902 -2.0701497 1.0138249e-38
4.3376307 1.5576761 -2.0671701 6.3586006e-39
4.5395737 1.5709034 -2.0616047 6.3535363e-39
4.6250095 1.5704596 -2.0654228 6.0852591e-39
4.3039556 1.6013916 -2.0527465 9.3110215e-39
4.6027393 1.6232731 -2.0891204 6.07912e-39
4.328908 1.6667049 -2.0687988 7.927364e-39
4.5857582 1.6768093 -2.0826917 5.3480416e-39
4.6259565 1.6617621 -2.09951 4.3320918e-39
4.3840408 1.7308325 -2.0808847 1.2904838e-38
4.5875058 1.7072743 -2.083869 1.1614099e-38
4.7948132 1.2432553 -2.0112493 5.9912558e-39
4.8403587 1.2860049 -2.0471697 3.7785649e-39
4.8637395 1.292724 -2.024991 5.8968994e-39
4.9334359 1.2801653 -2.0216422 9.4928849e-39
4.8433318 1.3489757 -2.0490215 6.4515123e-39
4.8774362 1.3433057 -2.0312693 7.6489709e-39
4.7366562 1.3797958 -2.0033865 7.6515002e-39
4.7780538 1.3613142 -2.0210361 8.4819699e-39
4.8233628 1.3747414 -2.0086563 5.5320825e-39
4.9848304 1.3895584 -2.0441327 8.5709229e-39
4.781466 1.4136283 -2.00179 8.7556841e-39
4.915565 1.4016321 -2.0153725 5.6228334e-39
4.3014283 1.487624 -2.0198643 6.267121e-39
4.3818288 1.4942305 -2.032074 7.4652985e-39
4.8263383 1.4678955 -2.0427868 9.2188161e-39
4.9185805 1.4654872 -2.0172501 9.5857979e-39
4.2670612 1.5032724 -2.0050194 7.6493366e-39
4.3626547 1.5372041 -2.0167265 5.6152552e-39
4.4490042 1.5136408 -2.0140188 7.6504114e-39
4.4918132 1.5268807 -2.0020845 1.0233331e-38
4.2818856 1.5738716 -2.0174851 9.0315424e-39
4.3482652 1.5700591 -2.0149047 8.5702041e-39
4.3744116 1.5841516 -2.0224462 6.0776753e-39
4.3293872 1.6240765 -2.0187049 7.6504156e-39
4.439055 1.6303176 -2.0269635 1.0042447e-38
4.493187 1.6180494 -2.0041432 4.6083283e-39
4.5784826 1.6465025 -2.0107858 1.1613735e-38
4.3484149 1.6876131 -2.0322242 1.2442063e-38
4.369318 1.65332 -2.0212133 4.9760319e-39
4.4921951 1.6633177 -2.0202904 5.3451661e-39
4.3680906 1.7242645 -2.0420997 9.9549462e-39
4.4286475 1.7164612 -2.0392187 5.6199621e-39
4.9690323 1.258279 -1.9867598 8.2932655e-39
4.871191 1.4200987 -1.9970517 5.3466094e-39
4.3907523 1.5246086 -1.9874613 9.2134155e-39
4.4010496 1.5724673 -1.9929359 6.3542594e-39
4.4722743 1.5657997 -1.9938715 6.6369937e-39
4.5361066 1.571102 -1.9907448 5.252253e-39
4.5365686 1.6017652 -1.9914372 9.1248324e-39
