# .PCD v0.7 - Point Cloud Data file format
VERSION 0.7
FIELDS x y z rgb
SIZE 4 4 4 4
TYPE F F F F
COUNT 1 1 1 1
WIDTH 190
HEIGHT 1
VIEWPOINT 0 0 0 1 0 0 0
POINTS 190
DATA ascii
4.7270994 2.818959 -1.9267067 4.0583944e-39
4.5429974 2.5963993 -1.8636396 6.1767373e-39
4.5581918 2.5543728 -1.8571769 5.5320839e-39
4.5595775 2.6545677 -1.8666691 8.3890652e-39
4.619863 2.722403 -1.8876715 6.5465946e-39
4.6588793 2.8077688 -1.8657526 7.6504114e-39
4.5581703 2.6822817 -1.8322642 6.7288278e-39
4.5977368 2.7382615 -1.8449531 4.0569496e-39
4.5746846 2.7533038 -1.8022013 7.1883584e-39
4.6358194 2.823055 -1.8225291 7.4645782e-39
4.5077229 2.5377369 -1.7793019 5.0718302e-39
4.4927464 2.5780003 -1.7964581 7.2834464e-39
4.5086079 2.6292892 -1.7731566 6.6380685e-39
4.516705 2.6823454 -1.7516913 4.2427828e-39
4.5346575 2.7253547 -1.7559214 6.9139225e-39
4.5567641 2.7099955 -1.7978592 4.0573126e-39
4.5732708 2.7811446 -1.7676386 7.6478876e-39
4.5677032 2.8433058 -1.7609423 7.3731e-39
4.6127739 2.8380761 -1.7796354 7.1879885e-39
4.5098872 2.5438373 -1.7116606 5.624288e-39
4.5525656 2.5373633 -1.7448974 5.6242809e-39
4.4843864 2.5673423 -1.7467558 5.9012252e-39
4.5016861 2.6353967 -1.7017974 7.0965229e-39
4.4909101 2.6725585 -1.7001014 5.5306406e-39
4.5125651 2.7404597 -1.7142992 7.8333579e-39
4.4873466 2.7895851 -1.7006844 7.28091e-39
4.5304985 2.7837386 -1.7183566 7.7411651e-39
4.2929859 2.8667476 -1.7079805 5.6228334e-39
4.5119052 2.5390654 -1.6656839 5.5324454e-39
4.5556202 2.5301399 -1.6753055 5.9916229e-39
4.4850335 2.5777807 -1.6993564 5.8083079e-39
4.5211325 2.5582643 -1.6520739 3.4119488e-39
4.5248775 2.6267762 -1.6642834 6.8202962e-39
4.4339471 2.6890974 -1.6555693 7.5574941e-39
4.4564114 2.6707549 -1.6657307 6.1767232e-39
4.3208976 2.78775 -1.6949034 8.6645633e-39
4.4034934 2.7733595 -1.6991808 6.9121247e-39
4.2404089 2.8011713 -1.6905012 6.9142911e-39
4.5579953 2.5245218 -1.6211787 5.7164808e-39
4.5518007 2.5877209 -1.6300082 3.6881769e-39
4.3795843 2.62116 -1.6085527 5.162221e-39
4.4611206 2.6357839 -1.6234298 5.8983427e-39
4.5801907 2.6363077 -1.6370609 2.9509706e-39
4.1794519 2.6631906 -1.6159679 6.543345e-39
4.2912178 2.699245 -1.6287709 6.4515123e-39
4.332705 2.6901944 -1.615693 5.6235495e-39
4.5456057 2.6509204 -1.6388379 7.005765e-39
4.5884733 2.6717033 -1.6216096 6.1763701e-39
4.4115043 2.7071683 -1.6454372 7.1890773e-39
4.1870365 2.7887597 -1.6100959 1.1247836e-38
4.5385404 2.5098972 -1.5834799 5.3477011e-39
4.5607109 2.5181012 -1.5593196 4.9789185e-39
4.343215 2.5957079 -1.5660582 3.7803655e-39
4.5344305 2.5518365 -1.589339 4.9792787e-39
4.2023506 2.6399441 -1.5680952 5.1629272e-39
4.2623391 2.6124518 -1.5638855 4.7927168e-39
4.3204575 2.6169066 -1.5860164 5.8994203e-39
4.5718522 2.6255426 -1.5870199 2.8584163e-39
4.5142374 2.658977 -1.5790997 5.8990658e-39
4.5898428 2.6684632 -1.5903952 4.424656e-39
4.2067113 2.7960453 -1.5732554 5.9912544e-39
4.5213661 2.4926391 -1.5157161 4.887076e-39
4.484519 2.5319715 -1.530869 5.2558572e-39
4.192112 2.5659804 -1.5108745 6.2678497e-39
4.2093716 2.5782042 -1.5311604 5.1625769e-39
4.357316 2.6215918 -1.5239294 5.070031e-39
4.4327178 2.6390135 -1.5195611 7.6522219e-39
4.4855981 2.6363089 -1.5233781 8.3901442e-39
4.5090866 2.6178992 -1.5332162 5.9919789e-39
4.4166284 2.4979868 -1.4783388 5.0693093e-39
4.4700418 2.4784303 -1.4831394 5.6235565e-39
4.3941145 2.5165555 -1.4689783 6.9139408e-39
4.5222216 2.5012074 -1.4526365 7.4649481e-39
4.4301691 2.568538 -1.4777486 6.3607642e-39
4.4072738 2.6024354 -1.4670873 6.3618474e-39
4.3986778 2.5935597 -1.4341258 6.9135764e-39
1.1087915 -0.019272141 -0.56547886 8.57636e-39
1.109696 0.043034337 -0.57648104 9.9563937e-39
1.103188 0.074224256 -0.5715366 1.631428e-38
1.1019567 -0.029180266 -0.50944895 9.7727452e-39
1.0943985 0.032519668 -0.50033516 1.032446e-38
1.1026465 0.037766956 -0.54943073 9.9549546e-39
1.0951632 0.068172038 -0.54221624 1.2350235e-38
1.0985649 -0.021553205 -0.45370954 9.4979576e-39
1.090507 0.025011973 -0.45553213 1.0324463e-38
1.0904554 0.063557163 -0.47398949 9.6783733e-39
1.1593387 0.080434278 -0.47602788 1.3460562e-38
1.0922872 -0.028240949 -0.42157531 9.0366221e-39
1.0858985 0.020170966 -0.42352784 8.3890778e-39
1.0795487 0.054659627 -0.42369288 8.0192149e-39
1.143062 0.075009897 -0.40231109 8.3898079e-39
1.0861455 -0.025840471 -0.37668714 6.916124e-39
1.1011207 -0.048351631 -0.36393154 2.7676766e-39
1.0820136 0.022170443 -0.39119437 7.4667642e-39
1.0852318 0.060681812 -0.3787733 1.1430815e-38
1.1084458 0.068343371 -0.39510575 8.2050593e-39
1.0909599 -0.056466602 -0.32614267 7.2849107e-39
1.081466 -0.036413833 -0.31679329 5.809775e-39
1.0739994 0.019526199 -0.34017807 8.2032517e-39
1.070539 0.053985212 -0.33947358 8.2965277e-39
1.080442 -0.057192072 -0.27804756 5.0722184e-39
1.0688329 -0.033439942 -0.26822263 6.8239284e-39
1.0661159 0.026814796 -0.28988674 9.2184854e-39
1.0654931 0.050168324 -0.28401184 5.8054506e-39
1.0738931 -0.058820833 -0.23090646 5.349164e-39
1.0629876 -0.035964154 -0.21874215 7.1927137e-39
1.0594479 0.028042456 -0.23762693 9.402878e-39
1.0562937 0.051563639 -0.23223788 8.1117847e-39
1.0554777 -0.058863066 -0.17989507 4.2417333e-39
1.0549163 -0.018493228 -0.17688167 9.6816327e-39
1.0520453 0.030988147 -0.18718135 8.7571513e-39
1.0380895 0.05222363 -0.19180247 1.4473995e-38
1.0477189 -0.059300356 -0.11817474 8.3912597e-39
1.0514303 -0.05434604 -0.14640725 9.5905217e-39
1.0445528 -0.017590944 -0.13272217 8.4805686e-39
1.043576 0.027437694 -0.13834593 8.5727572e-39
1.0506108 0.03761635 -0.13733302 1.1985432e-38
1.0441067 -0.063926302 -0.068566255 8.7604051e-39
1.0413979 -0.021437382 -0.077005915 9.680195e-39
1.0393802 0.021594597 -0.088695332 9.3099664e-39
1.0652776 0.039079007 -0.083564803 1.3643514e-38
1.1119366 0.043740004 -0.075836934 1.3643869e-38
1.0411826 -0.06736438 -0.019041717 7.8377258e-39
1.0361778 -0.028117027 -0.030861679 6.1767611e-39
1.0341239 0.01910159 -0.039035201 9.6780286e-39
1.0303558 -0.07037802 0.033718318 7.6533359e-39
1.02967 -0.026403315 0.0095429346 8.9426258e-39
1.0228868 0.017387077 0.011622256 9.4936387e-39
1.022788 -0.072898299 0.082450032 8.4845455e-39
1.0199393 -0.028419372 0.060178529 9.0355459e-39
1.0111536 0.019794516 0.063855484 1.2352417e-38
1.0210841 -0.077393875 0.12905195 8.3001514e-39
1.0162699 -0.035971556 0.11986092 9.8653093e-39
1.0126978 0.010507273 0.1208185 1.0602507e-38
1.0135828 -0.081185974 0.17310572 9.8682002e-39
0.99962521 -4.7011301e-05 0.19366564 1.2539697e-38
1.008973 -0.039679345 0.17359243 1.0418845e-38
1.0045795 0.016851375 0.17696676 1.1801412e-38
1.0123256 -0.10233591 0.24223417 4.5186929e-39
1.0084622 -0.075598352 0.21809492 6.0870976e-39
0.99399358 -0.002607458 0.23757204 6.7317411e-39
1.0039485 -0.026265129 0.21659724 6.6373805e-39
0.99169707 0.0071600266 0.23374501 7.1894767e-39
1.0016855 0.0077585811 0.20855172 7.190913e-39
1.0082586 -0.10437561 0.27224922 5.0725771e-39
0.99150753 -0.065863416 0.28622279 4.2413717e-39
1.0047406 -0.077617332 0.26702902 6.9164981e-39
0.99439216 -0.026840178 0.2658087 6.637742e-39
0.98907918 0.006552361 0.2647543 6.2685938e-39
0.99403727 -0.10642858 0.31923503 6.4569647e-39
0.99324584 -0.075967394 0.3307693 6.2707644e-39
0.9839251 -0.023775056 0.33059543 6.2704014e-39
0.98532271 0.0093755359 0.31222072 6.8224892e-39
4.0409851 2.6046004 -1.5638609 5.4373603e-39
4.1291022 2.6276014 -1.5691118 5.0703785e-39
4.0262566 2.5915391 -1.5305886 6.2689217e-39
4.2661862 2.5919485 -1.507316 7.0986851e-39
3.9988399 2.6046038 -1.5326772 6.8210123e-39
4.0590553 2.6234603 -1.5129622 7.3774441e-39
4.1125093 2.6134164 -1.5347029 6.8220927e-39
4.1908154 2.7798247 -1.5240111 9.3128166e-39
4.0768948 2.5750597 -1.4759305 6.3596726e-39
4.109663 2.5618162 -1.4942025 7.5596633e-39
4.6504636 2.5511382 -1.4601033 7.7415322e-39
4.0615106 2.6067655 -1.486701 6.7284551e-39
4.1124711 2.6355567 -1.4755046 8.4808951e-39
4.1678734 2.6371436 -1.4672844 8.2954277e-39
4.2252798 2.6276972 -1.4893999 9.2163008e-39
4.3834724 2.6353834 -1.4561778 5.5310007e-39
4.091855 2.6555595 -1.4948583 8.2957808e-39
4.161551 2.6967497 -1.4896303 5.8983385e-39
4.2010107 2.6881526 -1.4758545 5.0693037e-39
4.2596865 2.6757503 -1.4688991 6.729904e-39
4.3237762 2.675086 -1.4772542 9.218463e-39
4.3847609 2.6763132 -1.4611509 7.927364e-39
4.4019489 2.6503096 -1.492236 9.2188287e-39
4.2736406 2.7304878 -1.4699109 9.3106558e-39
4.3912578 2.7696793 -1.4793772 9.4936023e-39
4.4188142 2.4796257 -1.4498388 7.6511415e-39
4.3751974 2.517525 -1.4318266 5.8086722e-39
4.4666305 2.534065 -1.4312155 4.2395556e-39
4.4328117 2.5622892 -1.4175475 3.3176035e-39
4.6022601 2.5901027 -1.4410182 9.9556777e-39
4.4499564 2.6037767 -1.4201636 7.9302577e-39
4.5131006 2.6204333 -1.408968 9.3117446e-39
4.5786719 2.6094172 -1.4316591 1.1617001e-38
4.4432354 2.6671288 -1.4439135 6.5451526e-39
4.527473 2.681046 -1.4405174 6.2685714e-39
4.628809 2.6830192 -1.4104708 6.543345e-39
4.6128368 2.7271714 -1.4338616 1.1245688e-38
