# .PCD v0.7 - Point Cloud Data file format
VERSION 0.7
FIELDS x y z rgb
SIZE 4 4 4 4
TYPE F F F F
COUNT 1 1 1 1
WIDTH 206
HEIGHT 1
VIEWPOINT 0 0 0 1 0 0 0
POINTS 206
DATA ascii
4.3063421 2.7180407 -2.2881365 8.5734593e-39
4.4001908 2.7083275 -2.2947159 9.2188259e-39
4.3737144 2.760267 -2.2551758 9.6797942e-39
4.4327378 2.8325961 -2.2876241 6.8199319e-39
3.9853764 2.6407957 -2.2006018 4.979622e-39
3.9991877 2.6817944 -2.2111883 5.532793e-39
4.1401258 2.6780524 -2.2428136 4.7959594e-39
4.1660719 2.6617529 -2.220706 5.8994203e-39
4.2696095 2.6944335 -2.2368679 6.5444338e-39
4.3053055 2.6831701 -2.2346487 7.0983222e-39
4.303875 2.7725608 -2.2487073 8.5738166e-39
4.1887522 2.5443988 -2.1545918 5.6231991e-39
4.2231326 2.5984335 -2.1747034 6.5444366e-39
4.0704994 2.6324131 -2.1756968 7.1901591e-39
4.0875063 2.6754527 -2.1562364 1.3555634e-38
4.2685275 2.676415 -2.1693683 1.2995956e-38
4.232913 2.7038333 -2.1572459 6.3600425e-39
4.2401848 2.8088214 -2.1708715 1.1063448e-38
4.2928801 2.4411368 -2.1233585 1.4932777e-38
4.2386556 2.5087023 -2.1399708 6.2678469e-39
3.9265175 2.5698988 -2.1210213 6.8228185e-39
4.2067499 2.5880671 -2.1346366 1.253895e-38
3.9188695 2.627028 -2.123714 6.9157414e-39
4.0373554 2.642082 -2.1001835 1.5304819e-38
4.179143 2.718596 -2.1362576 6.4525913e-39
4.2558479 2.7182751 -2.135823 5.9919789e-39
4.3428354 2.7398181 -2.1406806 1.1707742e-38
4.1037736 2.4602482 -2.0787039 6.3600453e-39
3.8387327 2.5426555 -2.0941753 7.5593046e-39
4.1177225 2.5007699 -2.0886204 8.5716586e-39
3.8745644 2.5661995 -2.0827937 8.3001164e-39
4.1243582 2.5529795 -2.0652702 1.6134223e-38
4.1456366 2.6148975 -2.0802009 7.0036169e-39
4.5823379 2.2754776 -2.035897 5.8068743e-39
4.6110377 2.2568591 -2.0115602 6.0852563e-39
4.4923277 2.3161027 -2.0065808 1.0691431e-38
4.062922 2.3564992 -2.0203938 7.006128e-39
4.0352306 2.4187069 -2.0152271 1.0048224e-38
4.50876 2.4106743 -2.0263109 1.0414838e-38
4.5578084 2.4019871 -2.044183 1.096693e-38
4.085094 2.4806283 -2.0419054 1.0325902e-38
3.7940266 2.5422513 -2.0157504 1.0050026e-38
3.8302863 2.5361633 -2.0160866 7.5603822e-39
3.7903342 2.5698781 -2.0169928 9.4979365e-39
3.8609014 2.5869913 -2.019578 8.0213617e-39
4.1789279 2.570183 -2.0259886 1.1523354e-38
4.4908257 2.2640858 -1.998662 7.4663929e-39
4.5395985 2.2562184 -1.9841244 9.0358696e-39
4.5621333 2.2693696 -1.962018 7.3742e-39
4.4824939 2.3138788 -1.954268 8.9422418e-39
4.0131645 2.3896701 -1.9880797 7.8326404e-39
4.4942694 2.3704388 -1.9827313 9.3092265e-39
4.5218434 2.3523827 -1.9583523 8.7571289e-39
4.4469905 2.2607849 -1.9493139 1.0510648e-38
4.4917526 2.2684088 -1.9354051 6.8228213e-39
1.0781963 0.031889938 -0.52535456 1.1985072e-38
1.0752993 0.060639996 -0.52736193 9.6823502e-39
1.0772067 0.12735261 -0.53276414 1.1338259e-38
1.1337361 0.16893263 -0.50941348 1.5215166e-38
1.0748132 0.0352474 -0.45638698 1.106276e-38
1.0751693 0.064151414 -0.4612571 9.6816341e-39
1.0773313 0.1318015 -0.46323216 1.1522293e-38
1.1205597 0.16164529 -0.47816807 1.5399195e-38
1.1533426 0.17481717 -0.49163082 1.5675782e-38
1.0734913 0.038925588 -0.41374695 1.0512465e-38
1.073827 0.070695445 -0.41222185 8.3912471e-39
1.0643454 0.13152003 -0.42117625 1.0692521e-38
1.0677354 0.15176395 -0.40983826 1.3091059e-38
1.1277266 0.17474651 -0.42927426 1.2079794e-38
1.0722439 0.041553583 -0.3652108 1.1618458e-38
1.0691252 0.068838365 -0.36271012 1.1803564e-38
1.0672269 0.12775367 -0.36416256 1.0969835e-38
1.0722507 0.15414377 -0.3710866 1.2260587e-38
1.1285995 0.18518162 -0.36498669 1.1896124e-38
1.0706831 0.070964068 -0.31401718 1.0605027e-38
1.1033492 0.052514333 -0.34671354 3.7807495e-39
1.0660514 0.12895796 -0.31886059 1.0508858e-38
1.0560526 0.15550071 -0.32260051 1.2630441e-38
1.1171553 0.17792009 -0.3322331 1.530808e-38
1.1746356 0.19374701 -0.33241892 1.5584308e-38
1.0696243 0.076215133 -0.27449918 9.590156e-39
1.0644479 0.12566411 -0.27123791 1.0970198e-38
1.039198 0.16054714 -0.25030333 1.5030048e-38
1.0704534 0.16300923 -0.26535529 1.051031e-38
1.0629016 0.067973331 -0.22525811 9.7752675e-39
1.0484215 0.13945316 -0.21173927 1.2260221e-38
1.0587643 0.11601758 -0.22470297 1.1799603e-38
1.0463467 0.15753259 -0.20500126 1.2998502e-38
1.0644635 0.16816375 -0.2214441 1.2631164e-38
1.0467688 0.072501503 -0.15230945 9.8678233e-39
1.071057 0.07629972 -0.1750524 1.0419921e-38
1.0466893 0.13440603 -0.16816011 1.1246789e-38
1.0695488 0.12030025 -0.18282598 1.023264e-38
1.0454895 0.15604106 -0.15460609 1.2813755e-38
1.0684938 0.15864667 -0.18453451 1.1522299e-38
1.0463505 0.075632721 -0.10948907 1.0235531e-38
1.0725123 0.077526137 -0.13968383 8.7600408e-39
1.0481625 0.1209446 -0.10340992 1.2999226e-38
1.0679456 0.12647049 -0.12388562 1.1707411e-38
1.0445906 0.16515632 -0.10316667 1.2814475e-38
1.070673 0.16437204 -0.13461131 1.115388e-38
1.0432625 0.081728905 -0.059883971 1.1066372e-38
1.0647218 0.067532621 -0.092454895 8.3919771e-39
1.04198 0.13015723 -0.063742384 1.207799e-38
1.0646244 0.12297866 -0.0787789 1.2537892e-38
1.0398893 0.17257144 -0.06228058 1.4012655e-38
1.0695993 0.16535951 -0.077785015 1.0969126e-38
1.0423076 0.077424705 -0.010382812 1.0790147e-38
1.0622045 0.082254395 -0.039355986 8.1146756e-39
1.0408964 0.12782365 -0.0097371154 1.2999232e-38
1.066232 0.13237236 -0.039391018 1.0601065e-38
1.037379 0.17015861 -0.0032099551 1.3737509e-38
1.0593498 0.17437476 -0.019064289 1.4197411e-38
1.04146 0.079931632 0.03894265 1.1158573e-38
1.0600537 0.082936965 0.011776781 8.0221226e-39
1.0397316 0.12797828 0.04541982 1.3276543e-38
1.0631653 0.12580229 0.011173092 9.7713158e-39
1.0409396 0.16934016 0.034257613 1.4012301e-38
1.0620793 0.17063084 0.010484161 1.2906316e-38
1.0412199 0.079853103 0.089212455 1.1712467e-38
1.0598426 0.08535935 0.059800677 9.0369976e-39
1.0378656 0.12938309 0.096401542 1.281592e-38
1.059422 0.12831289 0.059336722 9.4032494e-39
1.028996 0.17964 0.079243839 1.3550237e-38
1.0634788 0.17584966 0.053967629 1.1891804e-38
1.0452974 0.20065448 0.098547824 1.2627553e-38
1.0398757 0.08356753 0.14500986 1.1342965e-38
1.0592378 0.086964786 0.11130055 9.0369976e-39
1.0359554 0.12616105 0.14448699 1.2723368e-38
1.0566382 0.13018458 0.10990309 9.1266597e-39
1.0319277 0.17279029 0.14153737 1.4381442e-38
1.0558276 0.17488083 0.10899526 1.0508512e-38
1.0316088 0.082907923 0.18952811 1.2911735e-38
1.0566194 0.087981381 0.16337399 8.8526022e-39
1.0348544 0.11467585 0.18949574 1.1158569e-38
1.0527613 0.13173936 0.1607118 9.9567833e-39
1.0302483 0.1857994 0.18317637 1.4567274e-38
1.0536362 0.18484567 0.1645143 6.7292132e-39
1.0332317 0.07754162 0.234727 1.1431897e-38
1.0561435 0.090771392 0.21197209 9.0380766e-39
1.0301485 0.11265388 0.24518254 1.2541148e-38
1.0526537 0.13027859 0.21825907 9.7731165e-39
1.0299354 0.17989279 0.23562562 1.1523738e-38
1.0521892 0.17579193 0.22455998 6.2689581e-39
1.0244501 0.20221215 0.22253506 1.1986155e-38
1.0225818 0.082357056 0.29785228 1.115857e-38
1.0524883 0.093003958 0.26128769 8.8536882e-39
1.0267649 0.12022263 0.28218812 1.2449675e-38
1.0517612 0.13069338 0.25638559 1.373753e-38
1.0254679 0.17540145 0.2897802 1.3921188e-38
1.0327199 0.20441854 0.27531767 1.0414484e-38
1.0341179 0.086471096 0.33645999 9.0387927e-39
1.0281241 0.11902197 0.33647212 1.1989056e-38
1.0551492 0.11534397 0.32004306 1.2929108e-39
1.0201675 0.17548965 0.33151647 1.3459489e-38
1.0283201 0.2045503 0.34923738 1.2631886e-38
1.0412438 0.087793335 0.37171003 7.3752987e-39
1.051319 0.096708648 0.36018598 1.2911378e-38
1.0346637 0.12029416 0.3844679 1.1158215e-38
1.0157951 0.17759471 0.36561009 1.2906675e-38
1.0273974 0.20557314 0.3900786 9.3099509e-39
1.0442843 0.097025067 0.41187361 1.0421371e-38
1.0609795 0.080149814 0.40122783 2.7658675e-39
1.030975 0.12321605 0.42505234 1.2910652e-38
1.0221826 0.17830123 0.43360397 1.4107019e-38
1.0100009 0.088033438 0.49019161 1.0236586e-38
1.0064131 0.11418709 0.54960239 7.6515002e-39
1.0097086 0.15996413 0.54958612 8.5759844e-39
1.0006036 0.11604661 0.57657629 7.3738273e-39
1.0097191 0.16051298 0.58447945 7.0997656e-39
0.98767507 0.13822585 0.64052093 3.7861361e-39
0.92247409 0.16357733 0.63632405 5.1643832e-39
0.96354377 0.13143657 0.66148347 5.7135843e-39
4.1299071 2.3158979 -2.0127113 5.6231837e-39
4.1984973 2.3105357 -2.0196717 5.7153948e-39
4.1633253 2.4298491 -2.0202258 1.5392311e-38
4.1766343 2.4813695 -2.0243797 1.2811209e-38
4.1369467 2.5193341 -2.0206411 6.6369853e-39
4.0982924 2.5524921 -2.0233521 9.0358738e-39
3.9816206 2.293566 -1.9505956 7.0976076e-39
4.0196667 2.2846005 -1.9650788 5.716471e-39
4.0609097 2.2768743 -1.950386 6.5451526e-39
4.1551099 2.298151 -1.9898682 4.9792661e-39
3.9844263 2.3415027 -1.9564734 8.0145108e-39
4.061017 2.3363326 -1.9501019 1.1426104e-38
4.1772933 2.3104973 -1.9684975 8.2054027e-39
4.2007427 2.3114147 -1.9729736 1.0141141e-38
4.2619491 2.3445454 -1.9538207 1.0600666e-38
4.255589 2.3541152 -1.9713423 1.1248212e-38
4.1280589 2.4089587 -1.9555887 7.6478961e-39
4.0305977 2.4785531 -1.9886875 1.1062739e-38
4.0539894 2.4613295 -1.9810026 7.8355285e-39
4.1533699 2.4895294 -1.9765496 1.0787587e-38
4.0095844 2.2838821 -1.9340029 8.7538737e-39
4.0638342 2.2815063 -1.9391648 8.0155954e-39
3.997977 2.3338881 -1.9309909 6.1691478e-39
4.0391521 2.3267825 -1.9162033 6.5400982e-39
4.0801606 2.3033366 -1.9299203 6.9992882e-39
4.1128707 2.3142509 -1.9219755 9.03372e-39
4.1564217 2.3211496 -1.9089708 5.6217516e-39
4.0112214 2.3727553 -1.9400588 6.7241237e-39
4.0523925 2.3657792 -1.9251534 5.252616e-39
4.1182795 2.3686886 -1.9309067 5.8068743e-39
4.1748395 2.3616092 -1.9311123 8.6663808e-39
4.0629945 2.4192212 -1.949748 5.0693037e-39
4.1685476 2.4017892 -1.9425874 5.0693233e-39
