# .PCD v0.7 - Point Cloud Data file format
VERSION 0.7
FIELDS x y z rgb
SIZE 4 4 4 4
TYPE F F F F
COUNT 1 1 1 1
WIDTH 369
HEIGHT 1
VIEWPOINT 0 0 0 1 0 0 0
POINTS 369
DATA ascii
4.3429632 1.9429679 -2.8019962 9.1262645e-39
4.5224361 1.6176732 -2.7247756 9.0322542e-39
4.6605721 1.6360722 -2.7327626 7.3749007e-39
4.3754854 1.8046468 -2.7165337 8.6623927e-39
4.3099289 1.8968995 -2.7478466 9.1244499e-39
4.339325 1.9381111 -2.7014904 1.1612656e-38
4.1798706 1.9822021 -2.7066293 1.2534609e-38
4.6009407 1.6136765 -2.6652899 7.7418853e-39
4.3419762 1.7297925 -2.6616268 8.7556701e-39
4.2592058 1.8434085 -2.6837156 1.0228274e-38
4.4059925 1.8461895 -2.6696672 1.3734952e-38
4.3633404 1.8883636 -2.6803823 1.0784327e-38
4.2417688 1.9229831 -2.6769619 1.2717556e-38
4.6542425 1.5684646 -2.6227431 5.4380862e-39
4.2302122 1.7853823 -2.6167912 1.262644e-38
4.7364368 1.4991274 -2.5575588 1.1241719e-38
4.6164169 1.5231712 -2.5670679 7.7418853e-39
4.515677 1.5661851 -2.5674739 7.7411693e-39
4.6175947 1.6180801 -2.5717459 1.3086714e-38
4.5711546 1.6952618 -2.5850971 8.9386321e-39
4.504797 1.731809 -2.5856018 9.2152134e-39
4.7413177 1.4358356 -2.5224338 8.845712e-39
4.7417192 1.4682331 -2.5240307 1.1979284e-38
4.5299568 1.5395262 -2.5151906 1.2256227e-38
4.6461029 1.5169102 -2.5306044 1.0413033e-38
4.6702623 1.5090388 -2.525167 1.3177462e-38
4.4484854 1.5567954 -2.5155623 1.1610489e-38
4.7466002 1.4049417 -2.4889057 1.1058407e-38
4.5386057 1.4959008 -2.492682 1.1610136e-38
4.4004488 1.5842934 -2.4918342 1.2165828e-38
4.3111172 1.6248159 -2.4791453 1.0690343e-38
4.4673014 2.329627 -2.1511562 6.8239101e-39
4.4845901 2.4009612 -2.1627841 5.1607735e-39
4.9864292 1.5820644 -2.1107788 6.0841773e-39
4.9763122 1.6426897 -2.1080122 7.7400875e-39
4.3889542 2.318259 -2.1171484 5.2558558e-39
4.9527168 1.5556794 -2.0636392 6.5469477e-39
4.9306688 1.6118097 -2.0560443 6.9153799e-39
5.0020747 1.6681039 -2.0860889 7.188727e-39
4.886436 1.5973724 -2.0056384 6.4522381e-39
4.9069438 1.5722759 -2.0455856 4.8867229e-39
4.979713 1.6609315 -2.0440402 7.3731154e-39
5.0059414 1.7026381 -2.0223594 5.5320853e-39
4.6588812 2.0580263 -2.0067277 1.0508473e-38
4.7446556 2.0657153 -2.0395329 1.2625738e-38
4.7454453 2.129287 -2.0426664 7.2812729e-39
4.7510233 2.1307616 -2.0113378 1.0600669e-38
4.3754201 2.2810535 -2.0481694 7.1894332e-39
4.4985285 2.2849448 -2.0365028 6.4515123e-39
4.5207043 2.2966857 -2.0146201 1.2534262e-38
4.3762002 2.3119121 -2.0198543 1.042027e-38
4.4758344 2.3349688 -2.0304105 1.3093213e-38
4.8431702 1.5832523 -1.956226 4.425735e-39
4.8637061 1.5584627 -1.9957404 5.3466151e-39
4.9123497 1.6384761 -1.9682394 7.0939992e-39
4.9606915 1.6872475 -1.9716811 5.2537006e-39
4.6424961 1.9877031 -1.9646531 1.3824276e-38
4.7345257 2.1219854 -1.9715127 1.281409e-38
4.4628916 2.2359025 -1.9884657 5.6214041e-39
4.3704586 2.2939508 -1.9708593 8.2046782e-39
4.421133 2.2754893 -1.9744503 1.2814446e-38
4.4184971 2.3351142 -1.9769017 7.7418882e-39
4.8204422 1.544631 -1.9464815 3.9658428e-39
4.8670273 1.5762814 -1.9332528 3.7796523e-39
4.9374022 1.647948 -1.9293134 9.6754726e-39
4.9523172 1.6003479 -1.9228972 3.9633219e-39
4.9506717 1.7001482 -1.9355326 6.8210109e-39
4.965414 1.7535584 -1.9096464 1.0505233e-38
4.5010252 1.9547648 -1.9106568 8.1103147e-39
4.5635061 2.01278 -1.9203917 8.1113965e-39
4.6972256 2.1347265 -1.9255414 6.5451372e-39
4.4540644 2.2777443 -1.9410816 9.8620219e-39
4.9385505 1.586152 -1.8632269 4.6090472e-39
4.9043889 1.6059254 -1.8675022 2.3949158e-39
4.9057112 1.6535079 -1.8691232 9.5829099e-39
4.9250116 1.7234859 -1.8697064 6.082371e-39
4.498498 1.9222895 -1.8608118 7.4653013e-39
4.5448971 1.9131794 -1.8931217 9.8616646e-39
4.5703974 1.9234078 -1.8707927 8.1106707e-39
4.4897833 1.9579878 -1.8540583 8.2050313e-39
4.6766891 1.9538915 -1.8937141 6.1742079e-39
4.5315542 2.0266678 -1.86156 8.2968724e-39
4.9407425 1.5877241 -1.8152946 6.0831039e-39
4.8955636 1.6194251 -1.8162448 6.9114072e-39
4.8754196 1.6749263 -1.8104236 6.1752841e-39
4.9444513 1.74693 -1.8367139 7.6493394e-39
4.9707127 1.7888199 -1.8144069 9.3088607e-39
4.4970417 1.9798129 -1.8156732 8.0191939e-39
4.5168686 1.9589543 -1.8216711 4.9760319e-39
4.5963268 1.9642839 -1.8497052 3.3179427e-39
4.5570621 2.0374432 -1.8392583 1.0048574e-38
4.919467 1.6124171 -1.7922277 4.5150565e-39
4.9677205 1.6293622 -1.7768276 6.1742065e-39
5.0136185 1.6128567 -1.7921288 5.7153976e-39
4.8654075 1.671847 -1.7748147 8.2961451e-39
4.9063449 1.6501714 -1.7670619 7.7411721e-39
4.9000907 1.7312269 -1.7883627 9.2181098e-39
4.9938903 1.7027055 -1.7547926 9.9524281e-39
4.9482627 1.7809721 -1.7738926 8.3869044e-39
4.8558259 1.6845143 -1.7398925 6.8220955e-39
4.8796163 1.7242485 -1.7490088 8.1110336e-39
4.947948 1.7181281 -1.7397609 6.5429918e-39
4.9727578 1.7588241 -1.7490913 7.2812729e-39
1.1585733 -0.06822136 -0.51340979 9.0315536e-39
1.1376992 -0.075071961 -0.47290865 1.0603222e-38
1.1402912 -0.03590814 -0.48071027 1.1523733e-38
1.1545007 -0.022948269 -0.48778963 1.1984347e-38
1.1465961 0.0080014504 -0.47853947 1.2075461e-38
1.1621094 0.014835561 -0.47709864 1.28123e-38
1.1351547 -0.078120761 -0.42877945 9.1284534e-39
1.1403123 -0.024998361 -0.41762444 1.0691452e-38
1.1538339 -0.019772787 -0.44108957 1.1705956e-38
1.146033 0.013785943 -0.41247439 1.0600328e-38
1.1633434 0.0098468065 -0.43688121 1.1705587e-38
1.1373872 -0.072930351 -0.38220856 9.6812684e-39
1.1359789 -0.026291182 -0.38124108 9.4932646e-39
1.1547539 -0.024489518 -0.38419566 1.1798153e-38
1.1397212 0.019306624 -0.37289467 1.1523735e-38
1.167068 0.033448122 -0.37035298 9.2192071e-39
1.1371213 -0.069359571 -0.33517781 9.5890728e-39
1.1422843 -0.023778165 -0.33167329 1.1245696e-38
1.1448215 0.022480985 -0.31986532 1.2259492e-38
1.1599107 0.030448146 -0.33951029 9.4954352e-39
1.1388555 -0.068698406 -0.27945369 1.1064562e-38
1.1359019 -0.035117295 -0.27231705 7.8362642e-39
1.1503135 -0.016897667 -0.27838168 1.1336806e-38
1.1385394 0.016795766 -0.28484711 1.1152426e-38
1.154021 0.01833136 -0.27916694 1.1428644e-38
1.2052917 0.04368322 -0.25426227 6.9168513e-39
1.1364384 -0.0649198 -0.22691262 9.7745458e-39
1.139639 -0.019036088 -0.23657741 1.0508854e-38
1.13573 0.01848169 -0.22582686 1.1706679e-38
1.1546922 0.029684782 -0.24393822 9.312846e-39
1.0990429 -0.056613192 -0.18097326 2.9499098e-39
1.1265613 -0.064984903 -0.17975362 1.0234442e-38
1.0971327 -0.047373112 -0.17899707 2.3967318e-39
1.1345333 -0.020582929 -0.1863075 1.0969115e-38
1.1364052 0.012466462 -0.17428173 1.1982549e-38
1.150565 0.026269127 -0.1956225 1.2905943e-38
1.0995493 -0.068975516 -0.12103812 1.1524464e-38
1.1208179 -0.064471066 -0.13709524 9.8660212e-39
1.1275038 -0.020025207 -0.13775605 1.1430097e-38
1.1368885 0.020762302 -0.13970463 1.216766e-38
1.1500623 0.045719322 -0.13887459 1.7519696e-38
1.1164477 -0.062669531 -0.086140655 1.0235165e-38
1.1242615 -0.021792814 -0.087337837 1.1247147e-38
1.0977511 0.047131043 -0.094096497 1.6689937e-38
1.135358 0.020163318 -0.092349447 1.1983634e-38
1.1860174 0.04195188 -0.062636673 7.0036351e-39
1.2796727 0.052645918 -0.069657803 7.3724232e-39
1.309399 0.059925441 -0.060577836 9.2170575e-39
1.091171 -0.062449459 -0.03308066 4.057342e-39
1.1131861 -0.060488876 -0.036322754 1.0972735e-38
1.1206046 -0.020101074 -0.036351167 1.1523376e-38
1.1329812 0.024583274 -0.039460614 1.2997786e-38
1.1088057 0.060084801 -0.021457739 1.5761849e-38
1.2602446 0.059240356 -0.0091367336 8.4812987e-39
1.0908093 -0.06524796 0.024868587 6.8232123e-39
1.1097765 -0.060860675 0.013757409 1.152591e-38
1.0917772 -0.047062661 0.036226526 4.7023569e-39
1.1172731 -0.022822797 0.014388835 1.1247514e-38
1.1292899 0.030352585 0.0094231321 1.2904502e-38
1.166888 0.0410381 0.0049865013 8.6646026e-39
1.1044701 0.053032942 0.021608148 1.6041321e-38
1.1734474 0.051308881 0.025514865 8.6656886e-39
1.217504 0.059638429 0.019581446 8.6656872e-39
1.2540237 0.067675151 0.013720225 8.2057894e-39
1.0895951 -0.063157871 0.076111056 7.561499e-39
1.1109707 -0.055193916 0.061185934 1.0605034e-38
1.0966586 -0.023954447 0.076573744 8.112149e-39
1.114934 -0.016478313 0.064088643 1.2168392e-38
1.0995942 0.030482512 0.066681862 1.2906309e-38
1.1275315 0.033129022 0.063282959 1.5025728e-38
1.0882444 -0.062193774 0.12680283 7.7458917e-39
1.1069396 -0.054048948 0.11314923 1.0973097e-38
1.0943711 -0.016491484 0.12505648 8.0206695e-39
1.1148269 -0.013763024 0.113942 1.1984719e-38
1.1181192 0.027578471 0.11054048 1.3089983e-38
1.1396211 0.057361707 0.13192271 1.327437e-38
1.0817946 -0.05999741 0.18016757 8.2075915e-39
1.1056691 -0.053169236 0.16403297 1.1065655e-38
1.089939 -0.018924046 0.18194644 8.9422684e-39
1.1121199 -0.010605216 0.16292587 1.1708129e-38
1.0946755 0.024458086 0.179654 9.4018005e-39
1.112725 0.037665233 0.16760541 1.1153876e-38
1.1204535 0.063552611 0.17973101 1.3274007e-38
1.0857913 -0.069082864 0.23167165 4.5194019e-39
1.1042438 -0.054151669 0.20446602 1.0788708e-38
1.0896266 -0.044923984 0.22605427 7.5618605e-39
1.1059588 -0.0091940351 0.2111187 1.1799606e-38
1.0908093 0.031336077 0.22497432 4.424677e-39
1.1103181 0.036495209 0.21056369 1.2259858e-38
1.1136523 0.056266829 0.21007687 6.2685784e-39
1.0844905 -0.059647612 0.28562993 8.2061453e-39
1.1029031 -0.05382999 0.25347945 1.0974905e-38
1.0915997 -0.022738481 0.27962708 9.8667499e-39
1.1064649 -0.015275914 0.25356239 1.0972735e-38
1.0863063 0.024811033 0.28217164 4.7016268e-39
1.1056112 0.03640601 0.26806521 1.2629365e-38
1.0926967 -0.061451517 0.31387109 7.4674985e-39
1.0814379 -0.041952208 0.33198127 3.9665925e-39
1.1028938 -0.015796561 0.30435264 1.1986166e-38
1.0825522 0.024764333 0.33146745 4.7927434e-39
1.108292 0.034193609 0.30263227 1.2814118e-38
1.1287265 0.066841021 0.34417289 1.0050041e-38
1.0839241 -0.060143735 0.37180468 7.0086797e-39
1.0868708 -0.027149914 0.36934921 7.6540562e-39
1.0795721 0.025276167 0.38233078 4.4246812e-39
1.1075538 0.033107828 0.35415673 1.1430822e-38
1.1358407 0.063524 0.36501187 6.3600411e-39
1.0727063 -0.069527231 0.4193812 2.4892764e-39
1.0866624 -0.035009246 0.41124591 8.6689284e-39
1.0770061 0.02799773 0.42396021 4.056256e-39
1.1028591 0.034504484 0.40606439 1.1430463e-38
1.074862 -0.062324833 0.47647989 9.3092265e-39
1.0873756 -0.031790622 0.4556635 1.0697954e-38
1.0943905 0.033650164 0.45525581 1.1062762e-38
1.0731978 -0.057751995 0.51931053 9.128082e-39
1.0766108 -0.021461247 0.5251928 8.2954333e-39
1.0903904 0.034052301 0.52138281 9.0355235e-39
4.2821894 1.7939928 -2.6627455 8.2932599e-39
4.1436644 1.8788091 -2.6807613 8.9386265e-39
4.0635481 1.8399677 -2.6008048 1.4102285e-38
4.1755028 1.819077 -2.6028085 1.4284883e-38
4.2691717 1.8167017 -2.6242356 1.520684e-38
4.1314688 1.9004102 -2.6432192 1.5113923e-38
4.2641554 1.5355566 -2.5616105 9.2162868e-39
4.1965876 1.6982012 -2.5782833 8.570553e-39
4.1793051 1.719566 -2.5694385 1.0230069e-38
4.2373514 1.743637 -2.5714869 1.4470352e-38
4.2597923 1.7232667 -2.5513053 1.4379957e-38
4.3391123 1.726234 -2.5626307 1.3547319e-38
4.400878 1.7209841 -2.5631139 1.1614099e-38
4.0099697 1.8432839 -2.5997484 1.2717556e-38
4.1105757 1.8187556 -2.5965614 1.3916093e-38
3.9945962 1.8633921 -2.5914466 1.4468554e-38
4.1822138 1.5480214 -2.5325184 9.0329745e-39
4.1390743 1.5738426 -2.509609 9.1248072e-39
4.1152172 1.6630564 -2.5001152 1.2624641e-38
4.1852913 1.4904363 -2.4537523 7.6500485e-39
4.2726717 1.5221912 -2.4545345 9.9513337e-39
4.0972052 1.6273935 -2.4885817 9.3073992e-39
4.1422892 1.6315798 -2.4983444 1.0967641e-38
4.1957588 1.6233388 -2.4650073 1.4194489e-38
4.0188003 1.4771848 -2.4085994 8.8493021e-39
4.0378265 1.5464365 -2.4069448 1.0506664e-38
4.2024393 1.5533694 -2.4189224 1.419197e-38
3.9907963 1.4454359 -2.3621747 8.5723621e-39
4.0442686 1.4790003 -2.362504 9.4928778e-39
3.9914775 1.5002532 -2.3648767 9.2148504e-39
4.0942163 1.5400836 -2.3917623 1.3362575e-38
4.1666031 1.5110841 -2.3982637 1.2442051e-38
3.9603999 1.4609506 -2.3463845 8.6638388e-39
4.4378333 2.1917257 -2.0685606 7.191957e-39
4.2856369 2.1739948 -2.0048654 5.1636503e-39
4.3593712 2.2274222 -2.0232162 6.5440638e-39
4.241076 2.2973151 -2.0234005 8.9425949e-39
4.7546263 1.9733069 -1.9721755 1.0046053e-38
4.8049517 1.9621241 -1.956251 6.3589537e-39
4.2552691 2.0704517 -1.9566627 6.2696447e-39
4.4290423 2.0966148 -1.9670962 5.9919789e-39
4.1069126 2.1377637 -1.9577436 5.4384393e-39
4.2688127 2.1358032 -1.995675 8.9422292e-39
4.1215768 2.2025898 -1.9677449 7.3756224e-39
4.2275543 2.2314696 -1.9843675 8.6634885e-39
4.2463942 2.2711756 -1.9649149 8.5767061e-39
4.2812858 2.3198822 -1.9819103 9.5879616e-39
4.3388872 2.3219328 -1.9751604 5.3462437e-39
4.661891 1.9089506 -1.9239088 9.9531315e-39
4.5823531 1.9625945 -1.9237945 6.9121247e-39
4.7657824 1.9762564 -1.9095181 7.8333607e-39
4.8355284 1.9737284 -1.9168894 6.8192116e-39
4.2232423 2.0256937 -1.9117594 5.4373631e-39
4.6115408 2.0753403 -1.9256616 1.2627536e-38
4.0562229 2.1387897 -1.9365922 5.7153822e-39
4.2003036 2.1009531 -1.9362162 5.6231865e-39
4.294322 2.1199863 -1.9157869 5.253695e-39
4.3916087 2.108964 -1.9227586 1.1522275e-38
4.3495011 2.1780608 -1.9105982 1.097018e-38
4.5325532 2.1787994 -1.9182295 5.5292028e-39
4.1406684 2.2131875 -1.9475205 1.0324811e-38
4.3863811 2.2271736 -1.9276185 5.2540509e-39
4.5610371 1.8084779 -1.8516436 6.5418932e-39
4.7021179 1.8067274 -1.8755739 6.725937e-39
4.8106227 1.8200296 -1.8541021 8.2028663e-39
4.5422277 1.8872999 -1.876025 6.8206479e-39
4.8206491 1.8703164 -1.8566155 1.0692146e-38
4.5150595 1.9187776 -1.8659927 8.6649249e-39
4.826685 1.9215024 -1.8946157 7.8344481e-39
4.4728951 1.950276 -1.8676013 1.0783268e-38
4.5134029 1.9725178 -1.8757446 9.4936065e-39
4.6258721 1.9682329 -1.850194 6.7237649e-39
4.6980829 1.9716077 -1.8705684 6.8141641e-39
4.7901244 1.9788959 -1.8702681 5.0664156e-39
4.8166122 1.9971941 -1.8945726 3.5001801e-39
4.8671484 1.9857626 -1.8774281 4.5168544e-39
4.170167 2.035522 -1.8839021 7.0064811e-39
4.2080593 2.0185044 -1.8761319 7.3745504e-39
4.5213208 2.0185418 -1.8736609 1.474768e-38
4.5867038 2.0236905 -1.8666383 9.4032017e-39
4.6619759 2.0356879 -1.8615586 4.8831146e-39
4.7178135 2.0123014 -1.8797766 4.975299e-39
4.7830267 2.0302472 -1.884552 5.3458878e-39
4.1682558 2.0560551 -1.8916652 7.0990327e-39
4.6246819 2.0978076 -1.8838844 5.7128752e-39
4.8178091 2.0934691 -1.8993182 8.4826958e-39
4.4327216 2.1601932 -1.8801774 1.1152053e-38
4.450521 2.1996677 -1.8890404 1.0505586e-38
4.3543091 1.7934418 -1.8000596 5.2515299e-39
4.4829817 1.7715412 -1.8301417 6.4468207e-39
4.5615654 1.7799965 -1.8211846 5.9916159e-39
4.6227732 1.7935985 -1.808084 8.4790973e-39
4.6529098 1.787832 -1.8103833 9.0322654e-39
4.4096293 1.8469111 -1.8232328 6.2671238e-39
4.4798484 1.8229214 -1.8105466 7.1872696e-39
4.4083219 1.8764633 -1.8244479 7.7411679e-39
4.4894724 1.8816024 -1.823344 9.7694689e-39
4.5057144 1.8720008 -1.831587 9.9549308e-39
4.57932 1.896632 -1.8274813 6.7201608e-39
4.6598253 1.8920579 -1.8206688 6.7219713e-39
4.7285719 1.8728082 -1.8107347 1.060032e-38
4.7535877 1.8747656 -1.834313 9.2170308e-39
4.8149018 1.8831091 -1.8217592 8.9389894e-39
4.4261942 1.9145133 -1.8331223 9.0340717e-39
4.5421586 1.9376303 -1.8468199 1.0413028e-38
4.6259928 1.924455 -1.8188233 6.3557069e-39
4.7734346 1.9271362 -1.8361623 6.9125044e-39
4.5046635 1.9804726 -1.8343889 1.1153126e-38
4.6879072 1.9661987 -1.8276827 7.0039616e-39
4.5234632 2.0198827 -1.843338 1.1615196e-38
4.6071749 2.0040362 -1.8438817 5.6228306e-39
4.2439489 2.0950236 -1.8358492 7.9262738e-39
4.9124336 1.5449007 -1.785149 1.384368e-39
4.8675361 1.5780871 -1.7683866 9.2302689e-40
4.8447671 1.6177231 -1.7596637 1.3836421e-39
5.0071459 1.6712511 -1.7538856 5.5352831e-40
4.3400517 1.7434556 -1.7621738 5.896898e-39
4.4574924 1.7467717 -1.7736477 5.8075778e-39
4.3373585 1.7566943 -1.7917947 6.2631581e-39
4.4177237 1.7608664 -1.7605271 7.9262766e-39
4.4766374 1.7885089 -1.7888983 8.2035796e-39
4.5384827 1.7798016 -1.7727116 9.4021256e-39
4.8459916 1.7746358 -1.7585866 1.6595157e-39
4.3938184 1.8105521 -1.785174 8.1106679e-39
4.4740758 1.8143855 -1.7832774 9.4914373e-39
4.570838 1.8258984 -1.7909917 6.9074401e-39
4.6144915 1.8169104 -1.781644 9.4946855e-39
4.6662693 1.8235747 -1.7702668 7.0921971e-39
4.7272129 1.8180376 -1.7922162 9.3970879e-39
4.5653687 1.8693051 -1.7947387 6.9045493e-39
4.6061783 1.8723003 -1.7798953 6.1742149e-39
4.667028 1.8685924 -1.7716219 7.9266395e-39
4.7723241 1.8668751 -1.7784028 7.5567766e-39
4.8143287 1.8531356 -1.7930081 4.6990792e-39
4.8890042 1.5374725 -1.7450441 1.1999767e-39
4.8672447 1.5778729 -1.7368265 1.4754818e-39
4.935102 1.5676665 -1.7294341 2.1201295e-39
4.9819498 1.5661948 -1.7137898 3.1335668e-39
4.8007436 1.6341614 -1.743384 2.3052383e-39
4.8561683 1.6370316 -1.7322704 1.3836449e-39
4.9827528 1.6309766 -1.7456563 3.134643e-39
4.7578421 1.6657798 -1.7273674 3.1350003e-39
4.8008204 1.6805937 -1.7119404 1.2910891e-39
4.8899474 1.695635 -1.7122539 1.0155827e-39
4.9601192 1.6877288 -1.7371153 2.4896295e-39
4.8234644 1.7352445 -1.7350678 1.9357383e-39
4.8680611 1.7195535 -1.7042927 2.2112448e-39
5.0073528 1.7359056 -1.7209743 2.671867e-39
4.9608727 1.7841229 -1.7364538 3.9618771e-39
