# .PCD v0.7 - Point Cloud Data file format
VERSION 0.7
FIELDS x y z rgb
SIZE 4 4 4 4
TYPE F F F F
COUNT 1 1 1 1
WIDTH 228
HEIGHT 1
VIEWPOINT 0 0 0 1 0 0 0
POINTS 228
DATA ascii
4.6903067 1.6247747 -2.2571926 1.3095741e-38
4.6548481 1.4527565 -2.2131488 6.6373539e-39
4.6083546 1.5633222 -2.2201991 9.4964974e-39
4.6843495 1.5728343 -2.2231226 1.1708475e-38
4.6376123 1.444563 -2.1728539 1.0325176e-38
4.7510462 1.4459964 -2.1586521 1.0877631e-38
4.5948792 1.4720718 -2.1629984 7.2834492e-39
4.6130075 1.5005889 -2.1920364 8.6656521e-39
4.5706792 1.5778109 -2.1697564 1.1617728e-38
4.6345243 1.6301174 -2.1654823 1.0879432e-38
4.0649552 1.4876479 -2.1359658 9.0311752e-39
4.1365151 1.4556735 -2.1156497 7.3752692e-39
4.0324459 1.5019339 -2.1186652 9.3081152e-39
4.0640502 1.542056 -2.1338043 8.7542352e-39
4.5752912 1.5156475 -2.14185 7.190899e-39
4.7327762 1.50095 -2.1156991 1.2257319e-38
4.062901 1.58261 -2.131947 5.7161094e-39
4.5983367 1.5522609 -2.1191292 1.1429007e-38
4.5298295 1.6234903 -2.1491766 1.0878353e-38
4.4669671 1.6918491 -2.148916 1.0232978e-38
4.5876045 1.4206842 -2.0544932 1.1429357e-38
4.6909685 1.4238917 -2.0998209 7.1880109e-39
4.1425734 1.4812448 -2.0595815 9.9556777e-39
4.5829916 1.4828478 -2.0824001 1.1429004e-38
4.0049853 1.5155451 -2.0757186 5.9923348e-39
4.0759611 1.5708681 -2.095865 8.3886939e-39
4.0187392 1.6023602 -2.08004 9.9531315e-39
3.9804778 1.829947 -2.0815201 6.9164533e-39
4.0467086 1.8054024 -2.088001 7.6525792e-39
4.0428872 1.4449302 -2.0403345 6.7306229e-39
4.0097194 1.5140377 -2.0357916 9.2170112e-39
4.0785723 1.6133229 -2.0432098 8.5727306e-39
4.038846 1.6877745 -2.0306871 8.2046768e-39
4.0045772 1.7287362 -2.0405912 9.3121005e-39
1.0945365 -0.23381332 -0.58431864 9.5912322e-39
1.1237402 -0.16541649 -0.58656561 1.1426126e-38
1.0895896 -0.26174235 -0.52308691 9.7730941e-39
1.0969924 -0.23372722 -0.54093611 1.0604668e-38
1.1202385 -0.16979979 -0.54002464 1.1797431e-38
1.0898433 -0.25903028 -0.48547882 1.0603578e-38
1.1000991 -0.23158437 -0.49317124 9.6823502e-39
1.1122038 -0.18749376 -0.49049076 1.1244984e-38
1.126101 -0.14735487 -0.46755552 1.3830065e-38
1.1723146 -0.14007646 -0.45448828 1.4847099e-38
1.0872601 -0.25299305 -0.42837939 1.0143328e-38
1.0909374 -0.2314387 -0.42059863 8.6689129e-39
1.1021612 -0.21644758 -0.4242692 9.8660156e-39
1.0955617 -0.16666403 -0.42755786 9.3106726e-39
1.104545 -0.16426906 -0.42302421 1.1338981e-38
1.0985842 -0.12454304 -0.41316539 1.5859449e-38
1.1249979 -0.14558469 -0.42985651 1.2631163e-38
1.1771977 -0.13815787 -0.42395285 1.1527342e-38
1.0833652 -0.25087976 -0.37517002 4.6112304e-39
1.0876859 -0.23009646 -0.38002446 9.7745444e-39
1.1012321 -0.20381606 -0.37862125 1.1338621e-38
1.0933996 -0.16614753 -0.37406746 1.023227e-38
1.1086776 -0.16245797 -0.37939841 1.2076184e-38
1.0974954 -0.14819533 -0.37084264 1.161593e-38
1.1155785 -0.13241169 -0.37930858 1.3647837e-38
1.1694176 -0.13514136 -0.38719738 8.1150259e-39
1.0872475 -0.22951207 -0.33217323 9.9600203e-39
1.0933698 -0.16573443 -0.32527438 9.8645723e-39
1.1062385 -0.16344231 -0.33628052 1.1615928e-38
1.0934794 -0.1409694 -0.31804913 1.0235162e-38
1.1051693 -0.12808679 -0.345631 1.5767616e-38
1.0853684 -0.23051532 -0.27612263 8.7600352e-39
1.0915308 -0.16726682 -0.27519 1.0508503e-38
1.1038208 -0.16872829 -0.28495201 1.2168021e-38
1.0954545 -0.14221454 -0.27478731 9.4039599e-39
1.0851424 -0.22835986 -0.22895007 9.4979618e-39
1.0924187 -0.1738036 -0.22916986 1.1523016e-38
1.1059895 -0.15653868 -0.23254155 1.2997423e-38
1.09457 -0.14420834 -0.21838145 8.6649515e-39
1.1162401 -0.13337627 -0.21843295 1.2258775e-38
1.0761161 -0.22775473 -0.18331346 1.1157483e-38
1.0908204 -0.17771226 -0.17817074 1.2261664e-38
1.1066258 -0.15852185 -0.18231228 1.3550964e-38
1.0941139 -0.14332157 -0.16801772 1.1707049e-38
1.1368755 -0.13380452 -0.17491873 1.5947686e-38
1.1788666 -0.1304964 -0.15029049 1.5479462e-38
1.0787044 -0.22756961 -0.12869556 1.1525908e-38
1.0882215 -0.17312011 -0.12391774 1.198436e-38
1.1087337 -0.15816593 -0.13399217 1.3366931e-38
1.0944291 -0.14343908 -0.12158923 1.1430822e-38
1.122669 -0.13747916 -0.12955606 1.4932085e-38
1.1516485 -0.13157821 -0.11199173 1.880358e-38
1.2159686 -0.13438329 -0.10601648 2.0187958e-38
1.2757491 -0.12920021 -0.1063028 2.0003206e-38
1.0786513 -0.2193476 -0.078312278 1.1341883e-38
1.0884976 -0.17745584 -0.078566395 1.2260585e-38
1.103289 -0.1599191 -0.08389613 1.2905949e-38
1.0485245 -0.12242186 -0.085383058 1.7425338e-38
1.0816033 -0.13288823 -0.06820523 1.5119726e-38
1.1224546 -0.13708283 -0.079701424 1.5302318e-38
1.1936238 -0.12079255 -0.074846201 1.9174533e-38
1.2284665 -0.13558748 -0.063812211 1.0231927e-38
1.0794106 -0.22390229 -0.033341788 1.1987975e-38
1.0904989 -0.17279759 -0.028747223 1.391903e-38
1.1014285 -0.15707999 -0.034481056 1.3827192e-38
1.0907853 -0.13548538 -0.020639006 1.3276179e-38
1.1247001 -0.13173598 -0.031984396 1.5026814e-38
1.1721785 -0.12893716 -0.03730806 1.3920111e-38
1.2014673 -0.13566184 -0.045022838 1.0323404e-38
1.0792316 -0.22890097 0.013203032 1.3740415e-38
1.0887946 -0.17275643 0.022084624 1.3183263e-38
1.1030253 -0.15225294 0.011900395 1.3643881e-38
1.094403 -0.13369589 0.022529662 1.3182179e-38
1.1180413 -0.13080545 0.029151751 1.2444255e-38
1.1513233 -0.12292056 0.041853443 1.5578171e-38
1.075714 -0.22147422 0.069674879 1.1434446e-38
1.0861924 -0.17367867 0.071477659 1.2814122e-38
1.0893712 -0.13895291 0.074359939 1.3273299e-38
1.1064539 -0.13039348 0.067614503 1.1612329e-38
1.0729562 -0.22214366 0.12207904 1.2080537e-38
1.0829536 -0.17483148 0.11846375 1.290632e-38
1.0867326 -0.13857253 0.12074876 1.327438e-38
1.1119503 -0.11861788 0.14473006 1.3828634e-38
1.0726621 -0.22242634 0.16532405 1.3465276e-38
1.0802995 -0.17831044 0.17058715 1.2907765e-38
1.0848871 -0.13945884 0.17321952 1.3091429e-38
1.1082991 -0.11163296 0.16102175 9.0344402e-39
1.1514035 -0.12342861 0.15352784 1.5302317e-38
1.227893 -0.13248219 0.18859462 1.6871803e-38
1.0705298 -0.21785514 0.22199385 1.466346e-38
1.0784937 -0.1799687 0.21991028 1.2815212e-38
1.0829334 -0.1396555 0.22195432 1.3275825e-38
1.0705189 -0.22673289 0.26397425 1.3647864e-38
1.0761473 -0.18399003 0.2703107 1.2171643e-38
1.0844918 -0.14077857 0.27287877 1.3459491e-38
1.107462 -0.11402403 0.29010159 8.7574904e-39
1.0494972 -0.23246951 0.33579701 6.2711245e-39
1.0681919 -0.2252958 0.32195866 1.3095775e-38
1.0752003 -0.18323882 0.32026434 1.2908487e-38
1.0805633 -0.14098491 0.32230428 1.3275466e-38
1.1343361 -0.11158612 0.30187652 7.4649481e-39
1.0663717 -0.21831493 0.37616968 1.4479075e-38
1.0493888 -0.19545889 0.39610118 6.3662082e-39
1.0715162 -0.1843771 0.36737901 1.2632985e-38
1.0791337 -0.140567 0.37139368 1.2722648e-38
1.1237721 -0.11943981 0.369793 7.0954411e-39
1.1875004 -0.1223477 0.37690133 8.2943417e-39
1.2004917 -0.11605187 0.38930064 8.2943375e-39
1.0493666 -0.21698786 0.41158763 6.6428007e-39
1.06269 -0.22421737 0.40942034 1.1805752e-38
1.0250583 -0.17610706 0.40249464 6.6384399e-39
1.0710289 -0.18583387 0.41070801 1.0696513e-38
1.078228 -0.13961603 0.41002601 1.161882e-38
1.1340879 -0.11369237 0.41269735 8.7524401e-39
1.0493441 -0.21561474 0.45970583 8.4830629e-39
1.0704516 -0.1575937 0.48430705 1.1991544e-38
1.0618451 -0.15219049 0.50733125 1.2550498e-38
0.99439162 -0.16025707 0.59615308 2.4028443e-39
1.0496467 -0.16465387 0.58450085 5.5324454e-39
1.0517883 -0.19266364 0.58480322 5.2554984e-39
0.98790431 -0.13700788 0.58447683 4.7001582e-39
1.03238 -0.19060452 0.60586363 6.0049605e-39
4.1474361 1.4772339 -2.1643934 9.2170084e-39
4.2622614 1.4416097 -2.1194348 5.0711044e-39
4.3765821 1.4493707 -2.1136749 8.9418733e-39
4.4335036 1.4102399 -2.1419721 5.9930635e-39
4.580411 1.4229743 -2.115155 5.8072373e-39
4.1728663 1.4672254 -2.1042097 5.3480444e-39
4.235528 1.4744735 -2.1053081 6.7306299e-39
4.3356948 1.5244017 -2.1222913 1.0238045e-38
4.3541722 1.5021549 -2.1319103 9.8652869e-39
4.5159125 1.5247381 -2.1141891 5.7150416e-39
4.0663509 1.5954427 -2.104598 9.7694661e-39
4.3566322 1.5592066 -2.1006994 7.8387893e-39
4.4896755 1.5791092 -2.1475406 8.852214e-39
4.5154114 1.554844 -2.112993 1.0046792e-38
4.1170053 1.6282792 -2.1004069 9.401757e-39
4.18083 1.3815107 -2.0521092 5.9919845e-39
4.2665629 1.3836224 -2.0934026 5.8075932e-39
4.3050027 1.3948728 -2.0813911 7.3745476e-39
3.9902773 1.4289879 -2.0709007 8.6663612e-39
4.2656164 1.4405415 -2.0911417 7.3749133e-39
4.5010028 1.4264513 -2.0790088 9.0337214e-39
4.5102329 1.4749616 -2.0816367 9.1259142e-39
4.2641959 1.525921 -2.0877497 1.0881967e-38
3.9693921 1.5834768 -2.083437 8.2965067e-39
4.3021364 1.5670756 -2.0745502 6.1763729e-39
4.3556647 1.6173494 -2.0983896 1.1337528e-38
4.7082405 1.0458337 -2.0216119 5.5324356e-39
4.6620164 1.0676513 -2.0338724 5.8976224e-39
4.575737 1.1394979 -2.0265851 6.9132163e-39
4.5160909 1.1533535 -2.0003417 9.1230233e-39
4.5546966 1.1945121 -2.015697 1.1705224e-38
4.4669743 1.3825991 -2.0338175 5.2544194e-39
3.9183609 1.4251881 -2.0066488 5.6242753e-39
3.9783065 1.4221243 -2.0369589 9.4979337e-39
4.4664788 1.4123081 -2.0326371 7.1916067e-39
3.9355183 1.4510555 -2.0330153 7.5582158e-39
3.9656515 1.4549514 -2.0016475 9.4017668e-39
4.0929203 1.4895231 -2.0350091 8.2979584e-39
4.0449448 1.5113742 -2.0108297 8.4816196e-39
4.0952301 1.5431143 -2.0056911 8.2968696e-39
4.128819 1.5290617 -2.0223408 9.8638324e-39
4.1785107 1.5208812 -2.0465724 9.6812488e-39
3.8735628 1.5812528 -2.0338192 9.4035717e-39
4.0440474 1.5653397 -2.0086858 7.0965271e-39
4.0571547 1.5595289 -2.043818 9.3092139e-39
4.1108665 1.5770819 -2.0121577 1.1615549e-38
3.8157067 1.6071695 -2.003015 8.1131944e-39
3.8757129 1.6060228 -2.0068026 3.3197475e-39
3.9757774 1.6210724 -2.0224185 7.5593004e-39
4.0246291 1.6272212 -2.0255296 8.8485986e-39
3.8677804 1.654583 -2.0012312 9.4946869e-39
3.881273 1.7000306 -2.0067103 1.1431874e-38
4.5020199 1.0573883 -1.9661571 6.727746e-39
4.6044865 1.0511376 -1.9780447 7.6507813e-39
4.7324467 1.0811461 -1.9978219 7.373121e-39
4.6271534 1.1163168 -1.9533736 6.5397478e-39
4.6898375 1.1016706 -1.979628 7.0922027e-39
4.4809422 1.1712912 -1.9534733 9.1205066e-39
4.6476822 1.1526645 -1.9606189 5.2515327e-39
4.6672506 1.1890326 -1.9674684 7.9262892e-39
4.5778012 1.2294757 -1.9927702 7.0036169e-39
3.7806909 1.6294518 -1.984167 3.9651197e-39
3.90802 1.6181247 -1.9953899 7.2827135e-39
3.7871222 1.6707455 -1.9862176 7.9284388e-39
3.9002924 1.6540645 -1.9903684 1.1247483e-38
3.8067343 1.7185489 -1.9948995 1.0509552e-38
4.4344373 1.0841663 -1.9365385 9.030106e-39
4.466815 1.0759912 -1.9196509 6.3513909e-39
4.5055375 1.0562683 -1.9364923 9.0301088e-39
4.4060183 1.120556 -1.9232628 7.6442807e-39
4.4565201 1.1177655 -1.9139768 6.6301386e-39
4.5427194 1.1867942 -1.9477662 5.1604259e-39
