# .PCD v0.7 - Point Cloud Data file format
VERSION 0.7
FIELDS x y z rgb
SIZE 4 4 4 4
TYPE F F F F
COUNT 1 1 1 1
WIDTH 155
HEIGHT 1
VIEWPOINT 0 0 0 1 0 0 0
POINTS 155
DATA ascii
4.5267172 1.487347 -2.4623766 1.0141867e-38
4.3794188 1.3942275 -2.4322486 7.4678264e-39
4.506217 1.38719 -2.4497962 5.3476941e-39
4.4893813 1.4122519 -2.4087374 8.6660081e-39
4.5144491 1.3261349 -2.3869636 7.0075727e-39
4.3664699 1.373929 -2.3770204 5.7168367e-39
4.4488959 1.3533561 -2.386883 6.6377126e-39
4.4631844 1.3878105 -2.3623023 7.3763552e-39
4.6026936 1.3516655 -2.3984482 9.6819719e-39
4.6747122 1.3720375 -2.3836136 6.6373581e-39
4.4050751 1.4166118 -2.3978815 8.204674e-39
4.3850913 1.4706998 -2.3885596 1.0422433e-38
4.4088459 1.4779557 -2.3688056 1.0420983e-38
4.448256 1.5833756 -2.3910108 1.0326615e-38
4.4350386 1.3328314 -2.3308892 7.4699984e-39
4.6108155 1.3844885 -2.3361497 9.8638324e-39
4.4238272 1.4362707 -2.3353133 7.1908836e-39
4.4815264 1.4076357 -2.306726 9.7702018e-39
4.354178 1.4587017 -2.3086977 7.1905277e-39
4.4127016 1.508904 -2.3391843 1.0234057e-38
4.5061998 1.1359584 -2.2808733 6.2685686e-39
4.5101247 1.16747 -2.2507129 1.2904137e-38
4.4210858 1.3276337 -2.2755775 6.9132191e-39
4.3858552 1.3576258 -2.2801175 6.6373567e-39
4.437592 1.1030328 -2.2310207 8.2972339e-39
4.4941907 1.1628152 -2.2105608 9.6798097e-39
4.4135509 1.1114405 -2.1718249 1.1152773e-38
4.4773579 1.1272382 -2.1696868 5.8979854e-39
4.5223298 1.1072586 -2.1574538 7.2809198e-39
4.4815879 1.0357877 -2.1375973 5.6163496e-39
4.3886065 1.0594834 -2.1274807 6.1705996e-39
4.4415421 1.0568337 -2.1198339 4.6994422e-39
1.013182 -0.25969207 -0.59025294 8.8536629e-39
1.0333399 -0.21327928 -0.59187043 1.0048954e-38
1.0390286 -0.18045437 -0.58710343 1.0416289e-38
1.0193024 -0.25863883 -0.54200143 8.7621946e-39
1.0363244 -0.21273583 -0.54588878 1.0601053e-38
1.0421965 -0.17850971 -0.54643071 1.0140788e-38
1.1329198 -0.17080867 -0.52895623 1.5768698e-38
1.0230629 -0.25711945 -0.4926033 8.7614743e-39
1.037802 -0.21151319 -0.49667388 1.0324107e-38
1.0433975 -0.17601074 -0.49346089 1.0601048e-38
1.0636286 -0.16895899 -0.49811912 1.5858734e-38
1.0174637 -0.25993085 -0.44002828 1.0328801e-38
1.0393864 -0.21028599 -0.44792604 1.0693607e-38
1.0438963 -0.17174864 -0.44265121 1.1429015e-38
1.1084981 -0.1650507 -0.42024952 8.5767229e-39
1.1584601 -0.15994924 -0.42125177 1.3740752e-38
1.025867 -0.25925577 -0.37708175 8.7614743e-39
1.0368009 -0.22178465 -0.38062853 9.035892e-39
1.0442017 -0.18272583 -0.3843452 9.7705662e-39
1.0530057 -0.16456492 -0.38063946 9.1277317e-39
1.1004304 -0.16353329 -0.38866699 1.5862329e-38
1.028507 -0.25594509 -0.32623434 9.0384241e-39
1.0364141 -0.22089092 -0.32899946 8.1135798e-39
1.0459977 -0.16988496 -0.3321481 9.9574868e-39
1.0406588 -0.14737143 -0.32528672 9.1295422e-39
1.0259148 -0.26008958 -0.28273579 4.9800172e-39
1.0333225 -0.22649193 -0.27917811 9.4968771e-39
1.0445243 -0.17344379 -0.27866009 1.0232279e-38
1.0533221 -0.15601215 -0.28224099 9.404313e-39
1.04774 -0.14856729 -0.27645293 6.5469813e-39
1.0555197 -0.1483835 -0.28860718 5.2551509e-39
1.0240762 -0.25794968 -0.21605951 6.6395371e-39
1.0323302 -0.22535361 -0.22866903 9.8660198e-39
1.0437412 -0.16585495 -0.22904153 1.0784369e-38
1.0517104 -0.16444787 -0.22943099 1.1984353e-38
1.0477895 -0.14862762 -0.24684204 2.9495385e-39
1.0501637 -0.14904311 -0.22228867 4.0558902e-39
1.0289407 -0.25127357 -0.15764984 7.56365e-39
1.0330642 -0.22082447 -0.1696457 1.0143328e-38
1.0436763 -0.17135483 -0.1728594 1.041811e-38
1.0525556 -0.16039607 -0.17893115 9.3106866e-39
1.0579768 -0.14640284 -0.17730692 6.1735073e-39
1.0291287 -0.23289138 -0.12353859 9.7759906e-39
1.0467856 -0.17558593 -0.12443219 1.0602143e-38
1.0560538 -0.15612596 -0.13363959 1.0140086e-38
1.0325329 -0.13395759 -0.13213025 1.1615214e-38
1.0553651 -0.13360755 -0.12042287 9.3106796e-39
1.0279866 -0.22978602 -0.071334369 1.0421363e-38
1.0469677 -0.17446905 -0.075023748 1.1154598e-38
1.0528387 -0.15656774 -0.074989833 8.019945e-39
1.04427 -0.14353326 -0.087413438 6.2678693e-39
1.0578873 -0.13549034 -0.066773146 1.1797435e-38
1.032168 -0.22772366 -0.022687754 1.0420644e-38
1.0440238 -0.18096393 -0.031890787 1.0141172e-38
1.0530818 -0.15862356 -0.022911977 1.0970928e-38
1.0441679 -0.12806325 -0.02129443 8.4834581e-39
1.0579822 -0.13720654 -0.021111587 1.364135e-38
1.0328038 -0.22684999 0.029461933 1.005186e-38
1.0438399 -0.18036045 0.018757956 1.032628e-38
1.0508554 -0.16128425 0.016860003 9.6791062e-39
1.0464643 -0.13632478 0.033912279 1.1062405e-38
1.0559862 -0.13676998 0.036370635 1.2627923e-38
1.0338408 -0.22525732 0.080120921 1.1250766e-38
1.0441246 -0.17761099 0.07809259 1.1431906e-38
1.0437958 -0.13024461 0.07270088 1.1246795e-38
1.0525154 -0.13565512 0.074503034 1.170777e-38
1.0354104 -0.22404544 0.12805296 1.0604676e-38
1.0430863 -0.17463529 0.12662186 1.088018e-38
1.0471333 -0.14757654 0.1263366 1.0694704e-38
1.0536082 -0.129022 0.12302578 1.133827e-38
1.0334162 -0.22451283 0.17303316 1.0789429e-38
1.042691 -0.17573033 0.17687249 1.2721928e-38
1.0486188 -0.13109931 0.17206961 1.1248238e-38
1.058259 -0.12200186 0.17525037 8.7585848e-39
1.0333474 -0.21637055 0.22879046 1.0144427e-38
1.0435146 -0.17873807 0.23085876 1.1064215e-38
1.0487769 -0.13260756 0.22629917 9.4954408e-39
1.0541707 -0.13431498 0.22030196 9.1266569e-39
1.0371221 -0.21833913 0.27318138 1.0605037e-38
1.0454497 -0.16824111 0.2769607 1.1064211e-38
1.0493909 -0.13593477 0.2721422 5.991651e-39
1.0514407 -0.12490338 0.27235717 1.0324122e-38
1.0362983 -0.20943931 0.32811403 9.5916133e-39
1.0561936 -0.22309917 0.30165282 6.4681135e-40
1.0352838 -0.18840809 0.32064909 8.0235646e-39
1.0502104 -0.15305208 0.33054093 1.2999598e-38
1.0485417 -0.13514684 0.32010818 6.4533494e-39
1.0565145 -0.11898485 0.32797644 1.0509228e-38
1.0327642 -0.20857938 0.3783291 9.5916119e-39
1.0411258 -0.17725532 0.37176108 9.4075808e-39
1.0508642 -0.15267771 0.38072965 1.2172001e-38
1.0414779 -0.11613548 0.37629303 4.3328345e-39
1.0570776 -0.11615176 0.37747782 1.0510306e-38
1.0278713 -0.21102799 0.41730249 9.3139264e-39
1.0378653 -0.1785631 0.40121031 4.7037904e-39
1.048373 -0.13006915 0.40197128 5.1651273e-39
1.088563 -0.17570977 0.46024394 8.7546023e-39
4.0683789 1.3368497 -2.2812393 5.4398869e-39
4.5126028 0.99753022 -2.2322998 1.2719377e-38
4.6856928 0.97113878 -2.21206 8.204318e-39
4.4497366 1.0294483 -2.2193506 7.5575067e-39
4.4946194 1.0087528 -2.2077961 6.5447897e-39
3.953388 1.326057 -2.2196732 5.0714645e-39
4.0219026 1.3763494 -2.2277086 1.0142224e-38
3.9377122 1.5387504 -2.2154417 9.3113747e-39
4.0591598 1.500631 -2.2200053 1.0417722e-38
4.541687 0.95669872 -2.1796169 6.6369895e-39
4.4556723 1.0302806 -2.1738968 7.8297594e-39
4.5478406 1.0100089 -2.1889572 7.369863e-39
4.6038585 1.0247674 -2.1763182 6.8177795e-39
4.6542983 1.0121249 -2.1820333 7.6507869e-39
4.3777761 1.0574625 -2.1698742 9.7698347e-39
3.8298502 1.3372214 -2.1539741 8.2983087e-39
3.8852735 1.3563371 -2.1696904 6.8231829e-39
3.925668 1.3702509 -2.1769474 7.0072196e-39
3.8446255 1.4488536 -2.1640267 6.8202948e-39
3.9931912 1.4484497 -2.1847601 8.942239e-39
4.0013261 1.4099389 -2.188235 8.9429579e-39
3.8906982 1.4932975 -2.1894739 5.1633028e-39
3.9093418 1.4726179 -2.1703427 9.1262673e-39
3.800072 1.3661187 -2.1386466 9.1251729e-39
3.8145604 1.4110243 -2.1472502 8.8478658e-39
3.8632627 1.4150411 -2.1449766 6.2678455e-39
